  0.20000E-03  0.25198E-03  0.31748E-03  0.40000E-03  0.50397E-03  0.63496E-03
  0.80000E-03  0.10079E-02  0.12699E-02  0.16000E-02  0.20159E-02  0.25398E-02
  0.32000E-02  0.40317E-02  0.50797E-02  0.64000E-02  0.80635E-02  0.10159E-01
  0.12800E-01  0.16127E-01  0.20319E-01  0.25600E-01  0.32254E-01  0.40637E-01
  0.51200E-01  0.64508E-01  0.81275E-01  0.10240E+00  0.12902E+00  0.16255E+00
  0.20480E+00  0.25803E+00  0.32510E+00  0.40960E+00  0.51606E+00  0.65020E+00
  0.81920E+00  0.10321E+01  0.13004E+01  0.16384E+01  0.20643E+01  0.26008E+01
  0.32768E+01  0.57452E-03  0.72384E-03  0.91199E-03  0.11490E-02  0.14477E-02
  0.18240E-02  0.22981E-02  0.28954E-02  0.36479E-02  0.45961E-02  0.57908E-02
  0.72959E-02  0.11572E-01  0.14770E-01  0.18851E-01  0.24060E-01  0.30709E-01
  0.39194E-01  0.50025E-01  0.63848E-01  0.81491E-01  0.10401E+00  0.13275E+00
  0.16943E+00  0.21625E+00  0.27601E+00  0.35228E+00  0.44962E+00  0.57387E+00
  0.73244E+00  0.93484E+00  0.11932E+01  0.15229E+01  0.19437E+01  0.24808E+01
  0.31663E+01  0.40412E+01  0.51579E+01  0.65832E+01  0.84023E+01  0.10724E+02
  0.13688E+02  0.17470E+02  0.20715E-03  0.26099E-03  0.32912E-03  0.43555E-03
  0.57638E-03  0.76276E-03  0.10094E-02  0.13358E-02  0.17677E-02  0.23394E-02
  0.30958E-02  0.40969E-02  0.54216E-02  0.71748E-02  0.94948E-02  0.12565E-01
  0.16628E-01  0.22005E-01  0.29120E-01  0.38537E-01  0.50998E-01  0.67488E-01
  0.89311E-01  0.11819E+00  0.15641E+00  0.20698E+00  0.27391E+00  0.36249E+00
  0.47970E+00  0.63481E+00  0.84009E+00  0.11117E+01  0.14712E+01  0.19470E+01
  0.25765E+01  0.34097E+01  0.45122E+01  0.59713E+01  0.79021E+01  0.10457E+02
  0.13839E+02  0.18314E+02  0.24236E+02  0.23559E-03  0.29682E-03  0.37397E-03
  0.47118E-03  0.59365E-03  0.74795E-03  0.95894E-03  0.12777E-02  0.17025E-02
  0.22685E-02  0.30227E-02  0.40275E-02  0.53665E-02  0.71506E-02  0.95278E-02
  0.12695E-01  0.16916E-01  0.22539E-01  0.30032E-01  0.40017E-01  0.70019E-01
  0.98384E-01  0.13824E+00  0.19424E+00  0.27293E+00  0.38350E+00  0.53885E+00
  0.75714E+00  0.10639E+01  0.14948E+01  0.21004E+01  0.29513E+01  0.41469E+01
  0.58268E+01  0.81872E+01  0.11504E+02  0.16164E+02  0.22712E+02  0.31913E+02
  0.44841E+02  0.63007E+02  0.88531E+02  0.12440E+03  0.20715E-03  0.26148E-03
  0.33067E-03  0.41710E-03  0.52691E-03  0.66640E-03  0.84289E-03  0.10674E-02
  0.13513E-02  0.17129E-02  0.21670E-02  0.27521E-02  0.34989E-02  0.44777E-02
  0.57347E-02  0.75389E-02  0.99020E-02  0.13161E-01  0.17372E-01  0.23337E-01
  0.31058E-01  0.41194E-01  0.55153E-01  0.74854E-01  0.99806E-01  0.13463E+00
  0.18136E+00  0.24282E+00  0.32955E+00  0.44123E+00  0.59884E+00  0.77090E+00
  0.99387E+00  0.12918E+01  0.16846E+01  0.22054E+01  0.29018E+01  0.38428E+01
  0.51340E+01  0.69457E+01  0.95814E+01  0.12072E+02  0.15210E+02  0.27144E-03
  0.34200E-03  0.43089E-03  0.54288E-03  0.68399E-03  0.86177E-03  0.10858E-02
  0.13680E-02  0.17235E-02  0.21715E-02  0.27360E-02  0.34471E-02  0.43431E-02
  0.54719E-02  0.68942E-02  0.86861E-02  0.10944E-01  0.13788E-01  0.17372E-01
  0.21888E-01  0.27577E-01  0.34745E-01  0.43775E-01  0.55154E-01  0.69489E-01
  0.87551E-01  0.11031E+00  0.13898E+00  0.17510E+00  0.22061E+00  0.27796E+00
  0.35020E+00  0.44123E+00  0.55591E+00  0.70041E+00  0.88246E+00  0.11118E+01
  0.14008E+01  0.17649E+01  0.22237E+01  0.28016E+01  0.35298E+01  0.44473E+01
  0.20715E-03  0.26099E-03  0.32883E-03  0.41430E-03  0.52198E-03  0.65766E-03
  0.82860E-03  0.10440E-02  0.13153E-02  0.16572E-02  0.20879E-02  0.26306E-02
  0.33144E-02  0.41759E-02  0.52613E-02  0.66288E-02  0.83517E-02  0.10523E-01
  0.13258E-01  0.16703E-01  0.21045E-01  0.26515E-01  0.33407E-01  0.42090E-01
  0.53030E-01  0.66814E-01  0.84180E-01  0.10606E+00  0.13363E+00  0.16836E+00
  0.21212E+00  0.26725E+00  0.33672E+00  0.42424E+00  0.53451E+00  0.67344E+00
  0.84848E+00  0.10690E+01  0.13469E+01  0.16970E+01  0.21380E+01  0.26938E+01
  0.33939E+01
