  0.18372E+04  0.17129E+04  0.15560E+04  0.13994E+04  0.12438E+04  0.10615E+04
  0.89315E+03  0.79608E+03  0.69647E+03  0.62660E+03  0.59498E+03  0.58492E+03
  0.59350E+03  0.75701E+03  0.79089E+03  0.81443E+03  0.84326E+03  0.87862E+03
  0.92219E+03  0.96695E+03  0.10184E+04  0.10843E+04  0.11634E+04  0.12668E+04
  0.14026E+04  0.15822E+04  0.18216E+04  0.21437E+04  0.25815E+04  0.31833E+04
  0.40208E+04  0.52007E+04  0.00000E+00  0.67565E+03  0.13505E+04  0.20255E+04
  0.26998E+04  0.33726E+04  0.40465E+04  0.40465E+04  0.40460E+04  0.40438E+04
  0.40356E+04  0.36871E+04  0.34406E+04  0.31303E+04  0.28204E+04  0.25124E+04
  0.21509E+04  0.18147E+04  0.16182E+04  0.14137E+04  0.12655E+04  0.11930E+04
  0.11616E+04  0.11677E+04  0.11899E+04  0.15401E+04  0.15762E+04  0.16203E+04
  0.16742E+04  0.17399E+04  0.18046E+04  0.18768E+04  0.19682E+04  0.20756E+04
  0.22149E+04  0.23963E+04  0.26338E+04  0.29470E+04  0.33627E+04  0.39196E+04
  0.46726E+04  0.57022E+04  0.71260E+04  0.00000E+00  0.13339E+04  0.26662E+04
  0.39987E+04  0.53296E+04  0.66577E+04  0.79878E+04  0.79874E+04  0.79859E+04
  0.79811E+04  0.79642E+04  0.72757E+04  0.67874E+04  0.61738E+04  0.55610E+04
  0.49520E+04  0.42374E+04  0.35730E+04  0.31838E+04  0.27787E+04  0.24845E+04
  0.23385E+04  0.22725E+04  0.22789E+04  0.23150E+04  0.30042E+04  0.30649E+04
  0.31382E+04  0.32264E+04  0.33325E+04  0.34302E+04  0.35343E+04  0.36647E+04
  0.38123E+04  0.40028E+04  0.42492E+04  0.45696E+04  0.49881E+04  0.55379E+04
  0.62652E+04  0.72352E+04  0.85410E+04  0.10316E+05  0.00000E+00  0.26334E+04
  0.52636E+04  0.78940E+04  0.10521E+05  0.13143E+05  0.15768E+05  0.15767E+05
  0.15764E+05  0.15753E+05  0.15719E+05  0.14359E+05  0.13393E+05  0.12180E+05
  0.10969E+05  0.97650E+04  0.83532E+04  0.70406E+04  0.62702E+04  0.54687E+04
  0.48855E+04  0.45933E+04  0.44575E+04  0.44620E+04  0.45226E+04  0.58802E+04
  0.59852E+04  0.61107E+04  0.62598E+04  0.64365E+04  0.65880E+04  0.67407E+04
  0.69298E+04  0.71340E+04  0.73963E+04  0.77342E+04  0.81709E+04  0.87374E+04
  0.94755E+04  0.10442E+05  0.11717E+05  0.13411E+05  0.15680E+05  0.00000E+00
  0.51991E+04  0.10392E+05  0.15585E+05  0.20772E+05  0.25948E+05  0.31130E+05
  0.31127E+05  0.31119E+05  0.31098E+05  0.31029E+05  0.28343E+05  0.26431E+05
  0.24035E+05  0.21642E+05  0.19263E+05  0.16475E+05  0.13882E+05  0.12358E+05
  0.10773E+05  0.96183E+04  0.90359E+04  0.87599E+04  0.87577E+04  0.88622E+04
  0.11538E+05  0.11725E+05  0.11946E+05  0.12205E+05  0.12509E+05  0.12750E+05
  0.12979E+05  0.13258E+05  0.13542E+05  0.13905E+05  0.14372E+05  0.14972E+05
  0.15746E+05  0.16749E+05  0.18053E+05  0.19756E+05  0.21995E+05  0.24957E+05
  0.00000E+00  0.10264E+05  0.20516E+05  0.30768E+05  0.41008E+05  0.51224E+05
  0.61455E+05  0.61447E+05  0.61431E+05  0.61388E+05  0.61250E+05  0.55945E+05
  0.52166E+05  0.47434E+05  0.42706E+05  0.38008E+05  0.32500E+05  0.27379E+05
  0.24367E+05  0.21235E+05  0.18950E+05  0.17793E+05  0.17237E+05  0.17217E+05
  0.17402E+05  0.22679E+05  0.23019E+05  0.23417E+05  0.23881E+05  0.24416E+05
  0.24814E+05  0.25164E+05  0.25585E+05  0.25980E+05  0.26485E+05  0.27132E+05
  0.27962E+05  0.29029E+05  0.30403E+05  0.32180E+05  0.34485E+05  0.37490E+05
  0.41427E+05  0.00000E+00  0.20264E+05  0.40504E+05  0.60744E+05  0.80959E+05
  0.10113E+06  0.12132E+06  0.12131E+06  0.12128E+06  0.12119E+06  0.12091E+06
  0.11044E+06  0.10297E+06  0.93623E+05  0.84286E+05  0.75006E+05  0.64129E+05
  0.54016E+05  0.48065E+05  0.41876E+05  0.37359E+05  0.35063E+05  0.33951E+05
  0.33890E+05  0.34226E+05  0.44634E+05  0.45264E+05  0.45999E+05  0.46846E+05
  0.47814E+05  0.48487E+05  0.49038E+05  0.49688E+05  0.50240E+05  0.50945E+05
  0.51845E+05  0.52998E+05  0.54475E+05  0.56372E+05  0.58814E+05  0.61964E+05
  0.66046E+05  0.71352E+05  0.00000E+00  0.40008E+05  0.79968E+05  0.11993E+06
  0.15984E+06  0.19966E+06  0.23953E+06  0.23950E+06  0.23943E+06  0.23925E+06
  0.23871E+06  0.21802E+06  0.20327E+06  0.18481E+06  0.16637E+06  0.14804E+06
  0.12656E+06  0.10659E+06  0.94837E+05  0.82611E+05  0.73684E+05  0.69136E+05
  0.66918E+05  0.66767E+05  0.67389E+05  0.87926E+05  0.89114E+05  0.90491E+05
  0.92068E+05  0.93854E+05  0.95028E+05  0.95917E+05  0.96950E+05  0.97722E+05
  0.98707E+05  0.99964E+05  0.10157E+06  0.10362E+06  0.10626E+06  0.10963E+06
  0.11397E+06  0.11956E+06  0.12679E+06  0.00000E+00  0.78988E+05  0.15788E+06
  0.23677E+06  0.31557E+06  0.39418E+06  0.47290E+06  0.47283E+06  0.47269E+06
  0.47234E+06  0.47126E+06  0.43042E+06  0.40128E+06  0.36483E+06  0.32841E+06
  0.29222E+06  0.24981E+06  0.21037E+06  0.18715E+06  0.16301E+06  0.14537E+06
  0.13637E+06  0.13196E+06  0.13162E+06  0.13279E+06  0.17332E+06  0.17558E+06
  0.17820E+06  0.18118E+06  0.18453E+06  0.18663E+06  0.18811E+06  0.18980E+06
  0.19088E+06  0.19226E+06  0.19401E+06  0.19626E+06  0.19912E+06  0.20278E+06
  0.20747E+06  0.21348E+06  0.22120E+06  0.23113E+06  0.00000E+00  0.15595E+06
  0.31171E+06  0.46747E+06  0.62304E+06  0.77825E+06  0.93366E+06  0.93352E+06
  0.93325E+06  0.93254E+06  0.93040E+06  0.84977E+06  0.79221E+06  0.72023E+06
  0.64833E+06  0.57686E+06  0.49311E+06  0.41525E+06  0.36939E+06  0.32170E+06
  0.28686E+06  0.26906E+06  0.26031E+06  0.25958E+06  0.26181E+06  0.34180E+06
  0.34616E+06  0.35118E+06  0.35687E+06  0.36325E+06  0.36709E+06  0.36963E+06
  0.37246E+06  0.37398E+06  0.37591E+06  0.37837E+06  0.38151E+06  0.38552E+06
  0.39063E+06  0.39716E+06  0.40551E+06  0.41622E+06  0.42995E+06  0.00000E+00
  0.30789E+06  0.61541E+06  0.92292E+06  0.12301E+07  0.15365E+07  0.18433E+07
  0.18430E+07  0.18425E+07  0.18411E+07  0.18368E+07  0.16776E+07  0.15640E+07
  0.14219E+07  0.12799E+07  0.11388E+07  0.97342E+06  0.81968E+06  0.72912E+06
  0.63495E+06  0.56614E+06  0.53095E+06  0.51362E+06  0.51209E+06  0.51638E+06
  0.67427E+06  0.68272E+06  0.69243E+06  0.70340E+06  0.71565E+06  0.72280E+06
  0.72727E+06  0.73218E+06  0.73431E+06  0.73702E+06  0.74047E+06  0.74486E+06
  0.75047E+06  0.75762E+06  0.76674E+06  0.77839E+06  0.79329E+06  0.81236E+06
  0.00000E+00  0.60792E+06  0.12151E+07  0.18223E+07  0.24287E+07  0.30337E+07
  0.36395E+07  0.36390E+07  0.36379E+07  0.36351E+07  0.36267E+07  0.33124E+07
  0.30879E+07  0.28073E+07  0.25269E+07  0.22483E+07  0.19218E+07  0.16182E+07
  0.14394E+07  0.12534E+07  0.11175E+07  0.10480E+07  0.10137E+07  0.10105E+07
  0.10189E+07  0.13305E+07  0.13470E+07  0.13659E+07  0.13872E+07  0.14109E+07
  0.14244E+07  0.14325E+07  0.14412E+07  0.14442E+07  0.14480E+07  0.14528E+07
  0.14590E+07  0.14669E+07  0.14769E+07  0.14896E+07  0.15059E+07  0.15267E+07
  0.15533E+07  0.00000E+00  0.00000E+00  0.00000E+00  0.00000E+00  0.00000E+00
  0.00000E+00  0.00000E+00  0.00000E+00  0.00000E+00  0.00000E+00  0.00000E+00
  0.00000E+00  0.00000E+00  0.00000E+00  0.00000E+00  0.00000E+00  0.00000E+00
  0.00000E+00  0.00000E+00  0.00000E+00  0.00000E+00  0.00000E+00  0.00000E+00
  0.00000E+00  0.00000E+00  0.00000E+00  0.00000E+00  0.00000E+00  0.00000E+00
  0.00000E+00  0.00000E+00  0.00000E+00  0.00000E+00  0.00000E+00  0.00000E+00
  0.00000E+00  0.00000E+00  0.00000E+00  0.00000E+00  0.00000E+00  0.00000E+00
  0.00000E+00  0.00000E+00  0.00000E+00  0.73778E-10  0.20559E-09  0.81902E-09
  0.26144E-08  0.79453E-08  0.87837E-07  0.26566E-06  0.99995E-06  0.20702E-05
  0.42324E-05  0.13188E-04  0.35792E-04  0.82252E-04  0.23827E-03  0.70715E-03
  0.18856E-02  0.46544E-02  0.10302E-01  0.20764E-01  0.43903E-01  0.87138E-01
  0.21020E+00  0.41279E+00  0.76163E+00  0.13671E+01  0.24229E+01  0.42942E+01
  0.75172E+01  0.13323E+02  0.23327E+02  0.40843E+02  0.71520E+02  0.12525E+03
  0.21932E+03  0.38408E+03  0.67258E+03  0.11778E+04  0.20627E+04  0.36120E+04
  0.63261E+04  0.11079E+05  0.19402E+05  0.00000E+00  0.27813E-09  0.56908E-09
  0.15863E-08  0.50190E-08  0.15915E-07  0.19274E-06  0.57499E-06  0.21383E-05
  0.43613E-05  0.88088E-05  0.27227E-04  0.73352E-04  0.16754E-03  0.48336E-03
  0.14301E-02  0.38044E-02  0.93706E-02  0.20706E-01  0.41682E-01  0.88043E-01
  0.17468E+00  0.42106E+00  0.82654E+00  0.15246E+01  0.27360E+01  0.48479E+01
  0.85909E+01  0.15037E+02  0.26649E+02  0.46658E+02  0.81687E+02  0.14304E+03
  0.25049E+03  0.43860E+03  0.76809E+03  0.13450E+04  0.23555E+04  0.41249E+04
  0.72232E+04  0.12651E+05  0.22155E+05  0.38799E+05  0.00000E+00  0.10798E-08
  0.20052E-08  0.28923E-08  0.64855E-08  0.20603E-07  0.31627E-06  0.93775E-06
  0.34607E-05  0.69401E-05  0.13816E-04  0.42335E-04  0.11317E-03  0.25683E-03
  0.73782E-03  0.21745E-02  0.57649E-02  0.14167E-01  0.31244E-01  0.62803E-01
  0.13253E+00  0.26263E+00  0.63277E+00  0.12415E+01  0.22891E+01  0.41068E+01
  0.72752E+01  0.12890E+02  0.22559E+02  0.39976E+02  0.69986E+02  0.12252E+03
  0.21453E+03  0.37568E+03  0.65779E+03  0.11519E+04  0.20172E+04  0.35325E+04
  0.61860E+04  0.10832E+05  0.18972E+05  0.33225E+05  0.58185E+05  0.00000E+00
  0.30381E-08  0.58688E-08  0.74586E-08  0.10846E-07  0.25269E-07  0.47118E-06
  0.13862E-05  0.50656E-05  0.99607E-05  0.19510E-04  0.59099E-04  0.15643E-03
  0.35210E-03  0.10054E-02  0.29489E-02  0.77881E-02  0.19082E-01  0.41978E-01
  0.84219E-01  0.17744E+00  0.35127E+00  0.84574E+00  0.16583E+01  0.30561E+01
  0.54808E+01  0.97065E+01  0.17194E+02  0.30087E+02  0.53309E+02  0.93319E+02
  0.16336E+03  0.28602E+03  0.50084E+03  0.87693E+03  0.15356E+04  0.26890E+04
  0.47090E+04  0.82462E+04  0.14440E+05  0.25290E+05  0.44289E+05  0.77562E+05
  0.00000E+00  0.86388E-08  0.17521E-07  0.24210E-07  0.30320E-07  0.38703E-07
  0.64665E-06  0.19207E-05  0.70194E-05  0.13506E-04  0.25978E-04  0.77859E-04
  0.20381E-03  0.45444E-03  0.12897E-02  0.37633E-02  0.98935E-02  0.24146E-01
  0.52961E-01  0.10601E+00  0.22299E+00  0.44078E+00  0.10604E+01  0.20776E+01
  0.38266E+01  0.68594E+01  0.12144E+02  0.21506E+02  0.37624E+02  0.66653E+02
  0.11666E+03  0.20420E+03  0.35751E+03  0.62600E+03  0.10960E+04  0.19192E+04
  0.33607E+04  0.58851E+04  0.10306E+05  0.18046E+05  0.31605E+05  0.55349E+05
  0.96929E+05  0.00000E+00  0.94296E-07  0.20652E-06  0.34987E-06  0.54425E-06
  0.80519E-06  0.45802E-06  0.10714E-05  0.67345E-05  0.13297E-04  0.25979E-04
  0.85101E-04  0.22982E-03  0.51933E-03  0.15158E-02  0.44904E-02  0.11859E-01
  0.28979E-01  0.63503E-01  0.12700E+00  0.26709E+00  0.52773E+00  0.12692E+01
  0.24858E+01  0.45759E+01  0.81986E+01  0.14508E+02  0.25686E+02  0.44924E+02
  0.79574E+02  0.13926E+03  0.24372E+03  0.42666E+03  0.74702E+03  0.13078E+04
  0.22901E+04  0.40099E+04  0.70218E+04  0.12296E+05  0.21531E+05  0.37709E+05
  0.66037E+05  0.11565E+06  0.00000E+00  0.26878E-06  0.57941E-06  0.96508E-06
  0.14707E-05  0.21441E-05  0.16972E-05  0.15869E-05  0.70368E-05  0.14127E-04
  0.27810E-04  0.98176E-04  0.26951E-03  0.60973E-03  0.18017E-02  0.53553E-02
  0.14107E-01  0.34343E-01  0.74943E-01  0.14936E+00  0.31337E+00  0.61797E+00
  0.14842E+01  0.29035E+01  0.53391E+01  0.95574E+01  0.16901E+02  0.29907E+02
  0.52284E+02  0.92585E+02  0.16199E+03  0.28345E+03  0.49614E+03  0.86858E+03
  0.15205E+04  0.26624E+04  0.46616E+04  0.81627E+04  0.14293E+05  0.25028E+05
  0.43833E+05  0.76760E+05  0.13442E+06  0.00000E+00  0.96555E-06  0.20550E-05
  0.33733E-05  0.50471E-05  0.72454E-05  0.79883E-05  0.88251E-05  0.68269E-05
  0.11034E-04  0.19823E-04  0.83131E-04  0.25907E-03  0.61879E-03  0.19740E-02
  0.60722E-02  0.16151E-01  0.39393E-01  0.85794E-01  0.17060E+00  0.35768E+00
  0.70441E+00  0.16908E+01  0.33048E+01  0.60702E+01  0.10855E+02  0.19179E+02
  0.33916E+02  0.59260E+02  0.10491E+03  0.18348E+03  0.32099E+03  0.56174E+03
  0.98328E+03  0.17212E+04  0.30134E+04  0.52758E+04  0.92379E+04  0.16176E+05
  0.28323E+05  0.49603E+05  0.86863E+05  0.15211E+06  0.00000E+00  0.21286E-05
  0.44667E-05  0.71874E-05  0.10498E-04  0.14657E-04  0.16412E-04  0.18548E-04
  0.13288E-04  0.18045E-04  0.27337E-04  0.93299E-04  0.29749E-03  0.71697E-03
  0.23345E-02  0.71874E-02  0.18973E-01  0.45886E-01  0.99105E-01  0.19573E+00
  0.40838E+00  0.80101E+00  0.19167E+01  0.37373E+01  0.68504E+01  0.12230E+02
  0.21582E+02  0.38129E+02  0.66571E+02  0.11779E+03  0.20592E+03  0.36013E+03
  0.63007E+03  0.11027E+04  0.19299E+04  0.33785E+04  0.59146E+04  0.10356E+05
  0.18132E+05  0.31748E+05  0.55598E+05  0.97361E+05  0.17050E+06  0.00000E+00
  0.00000E+00  0.00000E+00  0.00000E+00  0.00000E+00  0.00000E+00  0.00000E+00
  0.00000E+00  0.00000E+00  0.00000E+00  0.58944E-04  0.10757E-03  0.32039E-03
  0.78466E-03  0.26714E-02  0.82110E-02  0.21190E-01  0.50061E-01  0.10575E+00
  0.20937E+00  0.43900E+00  0.86638E+00  0.19329E+01  0.37575E+01  0.68696E+01
  0.12239E+02  0.21561E+02  0.38045E+02  0.66357E+02  0.11733E+03  0.20500E+03
  0.35836E+03  0.62678E+03  0.10966E+04  0.19190E+04  0.33588E+04  0.58796E+04
  0.10294E+05  0.18022E+05  0.31554E+05  0.55257E+05  0.96760E+05  0.16944E+06
  0.00000E+00  0.00000E+00  0.00000E+00  0.00000E+00  0.00000E+00  0.00000E+00
  0.00000E+00  0.00000E+00  0.00000E+00  0.00000E+00  0.00000E+00  0.20509E-03
  0.29637E-03  0.62833E-03  0.25236E-02  0.85282E-02  0.22323E-01  0.52519E-01
  0.10946E+00  0.21715E+00  0.45570E+00  0.90138E+00  0.19342E+01  0.37497E+01
  0.68351E+01  0.12146E+02  0.21353E+02  0.37621E+02  0.65530E+02  0.11577E+03
  0.20213E+03  0.35314E+03  0.61737E+03  0.10798E+04  0.18890E+04  0.33059E+04
  0.57860E+04  0.10129E+05  0.17732E+05  0.31044E+05  0.54361E+05  0.95188E+05
  0.16668E+06  0.00000E+00  0.40451E-04  0.82717E-04  0.12824E-03  0.17865E-03
  0.23603E-03  0.28263E-03  0.34008E-03  0.35657E-03  0.44065E-03  0.00000E+00
  0.00000E+00  0.54632E-03  0.71908E-03  0.23615E-02  0.88636E-02  0.23783E-01
  0.55801E-01  0.11479E+00  0.22604E+00  0.47228E+00  0.93384E+00  0.19510E+01
  0.37658E+01  0.68357E+01  0.12104E+02  0.21220E+02  0.37307E+02  0.64869E+02
  0.11447E+03  0.19966E+03  0.34855E+03  0.60900E+03  0.10647E+04  0.18620E+04
  0.32577E+04  0.57006E+04  0.99776E+04  0.17466E+05  0.30575E+05  0.53537E+05
  0.93741E+05  0.16414E+06  0.00000E+00  0.12916E-03  0.26278E-03  0.40422E-03
  0.55750E-03  0.72784E-03  0.87734E-03  0.10559E-02  0.11609E-02  0.14240E-02
  0.16511E-02  0.15133E-02  0.00000E+00  0.16191E-02  0.21124E-02  0.83073E-02
  0.24128E-01  0.57847E-01  0.11826E+00  0.23222E+00  0.48347E+00  0.95403E+00
  0.19577E+01  0.37614E+01  0.67932E+01  0.11976E+02  0.20919E+02  0.36678E+02
  0.63627E+02  0.11212E+03  0.19530E+03  0.34058E+03  0.59461E+03  0.10390E+04
  0.18161E+04  0.31764E+04  0.55569E+04  0.97243E+04  0.17020E+05  0.29791E+05
  0.52160E+05  0.91324E+05  0.15990E+06  0.00000E+00  0.30893E-03  0.62584E-03
  0.95701E-03  0.13094E-02  0.16916E-02  0.20374E-02  0.24374E-02  0.27177E-02
  0.32836E-02  0.37402E-02  0.37966E-02  0.37989E-02  0.00000E+00  0.00000E+00
  0.78384E-02  0.24607E-01  0.60803E-01  0.12402E+00  0.24139E+00  0.50055E+00
  0.97919E+00  0.19846E+01  0.37871E+01  0.67923E+01  0.11903E+02  0.20692E+02
  0.36148E+02  0.62514E+02  0.10994E+03  0.19116E+03  0.33291E+03  0.58062E+03
  0.10137E+04  0.17710E+04  0.30960E+04  0.54144E+04  0.94725E+04  0.16576E+05
  0.29010E+05  0.50787E+05  0.88912E+05  0.15567E+06  0.00000E+00  0.68673E-03
  0.13867E-02  0.21103E-02  0.28698E-02  0.36784E-02  0.44174E-02  0.52476E-02
  0.58722E-02  0.69869E-02  0.77558E-02  0.79213E-02  0.81369E-02  0.84713E-02
  0.64114E-02  0.00000E+00  0.25365E-01  0.65228E-01  0.13286E+00  0.25584E+00
  0.52720E+00  0.10192E+01  0.20383E+01  0.38529E+01  0.68466E+01  0.11904E+02
  0.20561E+02  0.35744E+02  0.61567E+02  0.10799E+03  0.18731E+03  0.32562E+03
  0.56713E+03  0.98913E+03  0.17267E+04  0.30167E+04  0.52734E+04  0.92227E+04
  0.16135E+05  0.28232E+05  0.49418E+05  0.86506E+05  0.15144E+06  0.00000E+00
  0.15719E-02  0.31664E-02  0.48031E-02  0.64986E-02  0.82791E-02  0.99341E-02
  0.11750E-01  0.13218E-01  0.15539E-01  0.16875E-01  0.17260E-01  0.17872E-01
  0.18791E-01  0.15533E-01  0.12119E-01  0.00000E+00  0.66563E-01  0.13842E+00
  0.26713E+00  0.54949E+00  0.10544E+01  0.20877E+01  0.39068E+01  0.68657E+01
  0.11820E+02  0.20250E+02  0.34987E+02  0.59943E+02  0.10478E+03  0.18117E+03
  0.31421E+03  0.54626E+03  0.95142E+03  0.16591E+04  0.28964E+04  0.50601E+04
  0.88455E+04  0.15469E+05  0.27061E+05  0.47359E+05  0.82889E+05  0.14510E+06
  0.00000E+00  0.34125E-02  0.68619E-02  0.10377E-01  0.13989E-01  0.17738E-01
  0.21249E-01  0.25019E-01  0.28177E-01  0.32776E-01  0.34889E-01  0.35505E-01
  0.36544E-01  0.38249E-01  0.33602E-01  0.23815E-01  0.29324E-01  0.00000E+00
  0.14717E+00  0.28497E+00  0.58597E+00  0.11098E+01  0.21784E+01  0.40232E+01
  0.69700E+01  0.11848E+02  0.20084E+02  0.34418E+02  0.58563E+02  0.10189E+03
  0.17546E+03  0.30335E+03  0.52612E+03  0.91467E+03  0.15928E+04  0.27777E+04
  0.48488E+04  0.84712E+04  0.14808E+05  0.25895E+05  0.45306E+05  0.79281E+05
  0.13876E+06  0.00000E+00  0.75356E-02  0.15132E-01  0.22835E-01  0.30693E-01
  0.38781E-01  0.46426E-01  0.54501E-01  0.61480E-01  0.70936E-01  0.74393E-01
  0.75243E-01  0.76988E-01  0.80117E-01  0.73535E-01  0.55669E-01  0.46018E-01
  0.75971E-01  0.00000E+00  0.29627E+00  0.61740E+00  0.11638E+01  0.22738E+01
  0.41445E+01  0.70617E+01  0.11819E+02  0.19773E+02  0.33536E+02  0.56554E+02
  0.97812E+02  0.16754E+03  0.28846E+03  0.49871E+03  0.86493E+03  0.15034E+04
  0.26182E+04  0.45656E+04  0.79699E+04  0.13923E+05  0.24337E+05  0.42565E+05
  0.74464E+05  0.13030E+06  0.00000E+00  0.15673E-01  0.31440E-01  0.47372E-01
  0.63552E-01  0.80074E-01  0.95770E-01  0.11213E+00  0.12652E+00  0.14501E+00
  0.15131E+00  0.15304E+00  0.15590E+00  0.16079E+00  0.15077E+00  0.12165E+00
  0.91800E-01  0.10017E+00  0.17006E+00  0.00000E+00  0.00000E+00  0.00000E+00
  0.24295E+01  0.43598E+01  0.72798E+01  0.11953E+02  0.19665E+02  0.32916E+02
  0.54878E+02  0.94173E+02  0.16018E+03  0.27431E+03  0.47228E+03  0.81648E+03
  0.14158E+04  0.24610E+04  0.42854E+04  0.74728E+04  0.13044E+05  0.22786E+05
  0.39835E+05  0.69664E+05  0.12187E+06  0.00000E+00  0.59785E-01  0.11976E+00
  0.18002E+00  0.24085E+00  0.30239E+00  0.36106E+00  0.42107E+00  0.47453E+00
  0.53883E+00  0.55984E+00  0.56500E+00  0.56964E+00  0.57851E+00  0.54776E+00
  0.46855E+00  0.36688E+00  0.28975E+00  0.31736E+00  0.00000E+00  0.00000E+00
  0.16120E+01  0.30652E+01  0.52854E+01  0.83864E+01  0.13103E+02  0.20627E+02
  0.33295E+02  0.53785E+02  0.90212E+02  0.15041E+03  0.25359E+03  0.43135E+03
  0.73879E+03  0.12719E+04  0.21988E+04  0.38129E+04  0.66277E+04  0.11541E+05
  0.20124E+05  0.35131E+05  0.61373E+05  0.10728E+06  0.00000E+00  0.14887E+00
  0.29807E+00  0.44784E+00  0.59851E+00  0.75050E+00  0.89598E+00  0.10437E+01
  0.11773E+01  0.13323E+01  0.13449E+01  0.13334E+01  0.13290E+01  0.13339E+01
  0.12665E+01  0.11168E+01  0.92070E+00  0.71430E+00  0.64524E+00  0.72522E+00
  0.11318E+01  0.19397E+01  0.35760E+01  0.60376E+01  0.92657E+01  0.13967E+02
  0.21252E+02  0.33323E+02  0.52427E+02  0.86248E+02  0.14130E+03  0.23493E+03
  0.39526E+03  0.67122E+03  0.11479E+04  0.19745E+04  0.34106E+04  0.59108E+04
  0.10269E+05  0.17876E+05  0.31166E+05  0.54392E+05  0.95007E+05  0.00000E+00
  0.33986E+00  0.68023E+00  0.10214E+01  0.13641E+01  0.17088E+01  0.20400E+01
  0.23746E+01  0.26800E+01  0.30253E+01  0.30435E+01  0.30133E+01  0.29948E+01
  0.29916E+01  0.28503E+01  0.25577E+01  0.21813E+01  0.17433E+01  0.14864E+01
  0.14131E+01  0.16871E+01  0.25365E+01  0.44220E+01  0.72411E+01  0.10706E+02
  0.15500E+02  0.22670E+02  0.34318E+02  0.52265E+02  0.83848E+02  0.13429E+03
  0.21921E+03  0.36344E+03  0.61009E+03  0.10340E+04  0.17662E+04  0.30344E+04
  0.52372E+04  0.90705E+04  0.15751E+05  0.27411E+05  0.47773E+05  0.83357E+05
  0.00000E+00  0.74648E+00  0.14937E+01  0.22421E+01  0.29926E+01  0.37462E+01
  0.44717E+01  0.52019E+01  0.58721E+01  0.66166E+01  0.66394E+01  0.65642E+01
  0.65076E+01  0.64752E+01  0.61735E+01  0.55854E+01  0.48444E+01  0.39649E+01
  0.33543E+01  0.29829E+01  0.29589E+01  0.38151E+01  0.60516E+01  0.94583E+01
  0.13401E+02  0.18555E+02  0.25962E+02  0.37714E+02  0.55265E+02  0.85864E+02
  0.13365E+03  0.21306E+03  0.34651E+03  0.57277E+03  0.95906E+03  0.16226E+04
  0.27672E+04  0.47489E+04  0.81890E+04  0.14173E+05  0.24602E+05  0.42794E+05
  0.74560E+05  0.00000E+00  0.15930E+01  0.31870E+01  0.47824E+01  0.63807E+01
  0.79836E+01  0.95284E+01  0.11079E+02  0.12507E+02  0.14074E+02  0.14096E+02
  0.13920E+02  0.13772E+02  0.13662E+02  0.13021E+02  0.11827E+02  0.10347E+02
  0.85914E+01  0.72799E+01  0.63054E+01  0.56416E+01  0.64048E+01  0.91366E+01
  0.13495E+02  0.18276E+02  0.24166E+02  0.32261E+02  0.44770E+02  0.62810E+02
  0.93871E+02  0.14113E+03  0.21841E+03  0.34655E+03  0.56142E+03  0.92496E+03
  0.15450E+04  0.26085E+04  0.44419E+04  0.76135E+04  0.13116E+05  0.22687E+05
  0.39357E+05  0.68432E+05  0.00000E+00  0.32621E+01  0.65254E+01  0.97900E+01
  0.13058E+02  0.16332E+02  0.19488E+02  0.22648E+02  0.25559E+02  0.28731E+02
  0.28735E+02  0.28339E+02  0.27984E+02  0.27683E+02  0.26332E+02  0.23900E+02
  0.20916E+02  0.17405E+02  0.14702E+02  0.12557E+02  0.10739E+02  0.11388E+02
  0.15126E+02  0.21289E+02  0.27649E+02  0.34984E+02  0.44583E+02  0.59003E+02
  0.79001E+02  0.11297E+03  0.16310E+03  0.24355E+03  0.37475E+03  0.59168E+03
  0.95449E+03  0.15675E+04  0.26111E+04  0.43994E+04  0.74789E+04  0.12802E+05
  0.22036E+05  0.38085E+05  0.66031E+05  0.00000E+00  0.67892E+01  0.13579E+02
  0.20370E+02  0.27165E+02  0.33968E+02  0.40530E+02  0.47094E+02  0.53153E+02
  0.59711E+02  0.59665E+02  0.58816E+02  0.58029E+02  0.57322E+02  0.54538E+02
  0.49635E+02  0.43664E+02  0.36657E+02  0.31110E+02  0.26428E+02  0.21733E+02
  0.21381E+02  0.25956E+02  0.34562E+02  0.43138E+02  0.52424E+02  0.63968E+02
  0.80824E+02  0.10321E+03  0.14077E+03  0.19431E+03  0.27840E+03  0.41288E+03
  0.63148E+03  0.99180E+03  0.15933E+04  0.26072E+04  0.43310E+04  0.72810E+04
  0.12356E+05  0.21125E+05  0.36322E+05  0.62724E+05  0.00000E+00  0.13631E+02
  0.27263E+02  0.40892E+02  0.54525E+02  0.68167E+02  0.81323E+02  0.94470E+02
  0.10660E+03  0.11969E+03  0.11951E+03  0.11772E+03  0.11602E+03  0.11443E+03
  0.10873E+03  0.98861E+02  0.86893E+02  0.72917E+02  0.61731E+02  0.52114E+02
  0.42154E+02  0.40222E+02  0.46882E+02  0.60381E+02  0.73112E+02  0.85919E+02
  0.10093E+03  0.12224E+03  0.14918E+03  0.19403E+03  0.25548E+03  0.34976E+03
  0.49727E+03  0.73229E+03  0.11129E+04  0.17388E+04  0.27806E+04  0.45337E+04
  0.75090E+04  0.12594E+05  0.21335E+05  0.36423E+05  0.62556E+05  0.00000E+00
  0.27822E+02  0.55643E+02  0.83453E+02  0.11126E+03  0.13908E+03  0.16593E+03
  0.19274E+03  0.21752E+03  0.24415E+03  0.24367E+03  0.23999E+03  0.23643E+03
  0.23305E+03  0.22152E+03  0.20177E+03  0.17791E+03  0.15010E+03  0.12754E+03
  0.10762E+03  0.85761E+02  0.78748E+02  0.86644E+02  0.10714E+03  0.12611E+03
  0.14400E+03  0.16375E+03  0.19105E+03  0.22373E+03  0.27808E+03  0.34935E+03
  0.45613E+03  0.61933E+03  0.87363E+03  0.12771E+04  0.19286E+04  0.29964E+04
  0.47697E+04  0.77470E+04  0.12791E+05  0.21403E+05  0.36187E+05  0.61684E+05
  0.00000E+00  0.55816E+02  0.11163E+03  0.16741E+03  0.22318E+03  0.27896E+03
  0.33280E+03  0.38653E+03  0.43622E+03  0.48949E+03  0.48835E+03  0.48086E+03
  0.47354E+03  0.46647E+03  0.44328E+03  0.40388E+03  0.35638E+03  0.30112E+03
  0.25599E+03  0.21568E+03  0.17051E+03  0.15349E+03  0.16364E+03  0.19721E+03
  0.22740E+03  0.25395E+03  0.28136E+03  0.31825E+03  0.35968E+03  0.42923E+03
  0.51597E+03  0.64299E+03  0.83259E+03  0.11211E+04  0.15688E+04  0.22766E+04
  0.34151E+04  0.52757E+04  0.83572E+04  0.13519E+05  0.22253E+05  0.37137E+05
  0.62661E+05  0.00000E+00  0.11197E+03  0.22392E+03  0.33581E+03  0.44767E+03
  0.55952E+03  0.66750E+03  0.77524E+03  0.87493E+03  0.98162E+03  0.97911E+03
  0.96398E+03  0.94911E+03  0.93457E+03  0.88819E+03  0.80979E+03  0.71543E+03
  0.60577E+03  0.51571E+03  0.43443E+03  0.34159E+03  0.30252E+03  0.31360E+03
  0.36942E+03  0.41888E+03  0.45966E+03  0.49889E+03  0.55034E+03  0.60397E+03
  0.69597E+03  0.80436E+03  0.95982E+03  0.11867E+04  0.15239E+04  0.20348E+04
  0.28244E+04  0.40678E+04  0.60610E+04  0.93074E+04  0.14669E+05  0.23635E+05
  0.38769E+05  0.64525E+05  0.00000E+00  0.22457E+03  0.44908E+03  0.67346E+03
  0.89776E+03  0.11220E+04  0.13386E+04  0.15546E+04  0.17547E+04  0.19685E+04
  0.19631E+04  0.19328E+04  0.19028E+04  0.18733E+04  0.17808E+04  0.16252E+04
  0.14381E+04  0.12207E+04  0.10413E+04  0.87796E+03  0.68798E+03  0.60113E+03
  0.60763E+03  0.70128E+03  0.78426E+03  0.84889E+03  0.90675E+03  0.98075E+03
  0.10514E+04  0.11770E+04  0.13156E+04  0.15109E+04  0.17901E+04  0.21960E+04
  0.27966E+04  0.37033E+04  0.50982E+04  0.72864E+04  0.10781E+05  0.16454E+05
  0.25802E+05  0.41388E+05  0.67649E+05  0.00000E+00  0.45028E+03  0.90045E+03
  0.13503E+04  0.18000E+04  0.22496E+04  0.26839E+04  0.31171E+04  0.35187E+04
  0.39471E+04  0.39360E+04  0.38754E+04  0.38153E+04  0.37559E+04  0.35721E+04
  0.32636E+04  0.28929E+04  0.24624E+04  0.21057E+04  0.17782E+04  0.13908E+04
  0.12018E+04  0.11875E+04  0.13450E+04  0.14868E+04  0.15921E+04  0.16800E+04
  0.17896E+04  0.18839E+04  0.20608E+04  0.22416E+04  0.24924E+04  0.28448E+04
  0.33471E+04  0.40743E+04  0.51467E+04  0.67580E+04  0.92274E+04  0.13085E+05
  0.19223E+05  0.29157E+05  0.45470E+05  0.72609E+05  0.00000E+00  0.88895E+03
  0.17777E+04  0.26658E+04  0.35535E+04  0.44409E+04  0.52981E+04  0.61529E+04
  0.69452E+04  0.77901E+04  0.77675E+04  0.76468E+04  0.75269E+04  0.74080E+04
  0.70432E+04  0.64321E+04  0.56983E+04  0.48467E+04  0.41406E+04  0.34921E+04
  0.27267E+04  0.23508E+04  0.23160E+04  0.26131E+04  0.28741E+04  0.30577E+04
  0.31993E+04  0.33714E+04  0.35003E+04  0.37632E+04  0.40061E+04  0.43392E+04
  0.48005E+04  0.54468E+04  0.63647E+04  0.76894E+04  0.96346E+04  0.12546E+05
  0.16988E+05  0.23899E+05  0.34858E+05  0.52526E+05  0.81458E+05  0.00000E+00
  0.17550E+04  0.35095E+04  0.52628E+04  0.70151E+04  0.87669E+04  0.10459E+05
  0.12146E+05  0.13709E+05  0.15376E+05  0.15331E+05  0.15091E+05  0.14852E+05
  0.14615E+05  0.13892E+05  0.12683E+05  0.11232E+05  0.95481E+04  0.81513E+04
  0.68682E+04  0.53564E+04  0.46106E+04  0.45327E+04  0.51001E+04  0.55892E+04
  0.59180E+04  0.61539E+04  0.64332E+04  0.66108E+04  0.70147E+04  0.73450E+04
  0.77936E+04  0.84079E+04  0.92566E+04  0.10442E+05  0.12122E+05  0.14536E+05
  0.18068E+05  0.23332E+05  0.31330E+05  0.43727E+05  0.63300E+05  0.94752E+05
  0.00000E+00  0.34649E+04  0.69289E+04  0.10390E+05  0.13850E+05  0.17308E+05
  0.20648E+05  0.23978E+05  0.27064E+05  0.30354E+05  0.30262E+05  0.29786E+05
  0.29313E+05  0.28841E+05  0.27410E+05  0.25019E+05  0.22149E+05  0.18822E+05
  0.16061E+05  0.13524E+05  0.10538E+05  0.90601E+04  0.88936E+04  0.99869E+04
  0.10916E+05  0.11519E+05  0.11924E+05  0.12393E+05  0.12639E+05  0.13281E+05
  0.13734E+05  0.14345E+05  0.15174E+05  0.16307E+05  0.17869E+05  0.20047E+05
  0.23120E+05  0.27525E+05  0.33943E+05  0.43469E+05  0.57888E+05  0.80137E+05
  0.11513E+06  0.00000E+00  0.68406E+04  0.13679E+05  0.20513E+05  0.27342E+05
  0.34169E+05  0.40763E+05  0.47336E+05  0.53426E+05  0.59918E+05  0.59734E+05
  0.58793E+05  0.57855E+05  0.56919E+05  0.54088E+05  0.49362E+05  0.43692E+05
  0.37119E+05  0.31662E+05  0.26648E+05  0.20751E+05  0.17827E+05  0.17480E+05
  0.19601E+05  0.21385E+05  0.22510E+05  0.23227E+05  0.24037E+05  0.24380E+05
  0.25435E+05  0.26060E+05  0.26900E+05  0.28031E+05  0.29564E+05  0.31655E+05
  0.34532E+05  0.38532E+05  0.44162E+05  0.52202E+05  0.63874E+05  0.81134E+05
  0.10714E+06  0.14711E+06  0.00000E+00  0.13505E+05  0.27006E+05  0.40497E+05
  0.53981E+05  0.67458E+05  0.80475E+05  0.93451E+05  0.10547E+06  0.11829E+06
  0.11792E+06  0.11606E+06  0.11420E+06  0.11235E+06  0.10675E+06  0.97412E+05
  0.86209E+05  0.73226E+05  0.62444E+05  0.52539E+05  0.40895E+05  0.35111E+05
  0.34402E+05  0.38537E+05  0.41987E+05  0.44117E+05  0.45417E+05  0.46859E+05
  0.47336E+05  0.49128E+05  0.49996E+05  0.51156E+05  0.52711E+05  0.54806E+05
  0.57640E+05  0.61500E+05  0.66801E+05  0.74154E+05  0.84473E+05  0.99161E+05
  0.12041E+06  0.15170E+06  0.19866E+06  0.00000E+00  0.26664E+05  0.53320E+05
  0.79955E+05  0.10658E+06  0.13318E+06  0.15888E+06  0.18450E+06  0.20823E+06
  0.23353E+06  0.23280E+06  0.22912E+06  0.22544E+06  0.22177E+06  0.21071E+06
  0.19226E+06  0.17014E+06  0.14449E+06  0.12320E+06  0.10363E+06  0.80636E+05
  0.69203E+05  0.67768E+05  0.75858E+05  0.82570E+05  0.86650E+05  0.89054E+05
  0.91679E+05  0.92347E+05  0.95481E+05  0.96690E+05  0.98300E+05  0.10045E+06
  0.10334E+06  0.10721E+06  0.11246E+06  0.11959E+06  0.12936E+06  0.14288E+06
  0.16180E+06  0.18867E+06  0.22738E+06  0.28416E+06  0.00000E+00  0.52642E+05
  0.10527E+06  0.15786E+06  0.21041E+06  0.26294E+06  0.31367E+06  0.36425E+06
  0.41110E+06  0.46103E+06  0.45959E+06  0.45231E+06  0.44505E+06  0.43778E+06
  0.41594E+06  0.37950E+06  0.33580E+06  0.28516E+06  0.24310E+06  0.20445E+06
  0.15905E+06  0.13646E+06  0.13358E+06  0.14945E+06  0.16256E+06  0.17044E+06
  0.17496E+06  0.17983E+06  0.18077E+06  0.18640E+06  0.18808E+06  0.19033E+06
  0.19332E+06  0.19731E+06  0.20265E+06  0.20984E+06  0.21954E+06  0.23271E+06
  0.25073E+06  0.27561E+06  0.31035E+06  0.35949E+06  0.43007E+06  0.00000E+00
  0.10393E+06  0.20784E+06  0.31166E+06  0.41542E+06  0.51914E+06  0.61930E+06
  0.71915E+06  0.81164E+06  0.91022E+06  0.90736E+06  0.89299E+06  0.87862E+06
  0.86427E+06  0.82111E+06  0.74916E+06  0.66285E+06  0.56286E+06  0.47979E+06
  0.40346E+06  0.31383E+06  0.26919E+06  0.26343E+06  0.29462E+06  0.32031E+06
  0.33562E+06  0.34423E+06  0.35342E+06  0.35473E+06  0.36506E+06  0.36742E+06
  0.37055E+06  0.37471E+06  0.38027E+06  0.38767E+06  0.39758E+06  0.41089E+06
  0.42884E+06  0.45319E+06  0.48643E+06  0.53225E+06  0.59605E+06  0.68602E+06
  0.00000E+00  0.20520E+06  0.41033E+06  0.61531E+06  0.82017E+06  0.10249E+07
  0.12227E+07  0.14198E+07  0.16024E+07  0.17970E+07  0.17914E+07  0.17630E+07
  0.17346E+07  0.17062E+07  0.16210E+07  0.14789E+07  0.13085E+07  0.11110E+07
  0.94699E+06  0.79628E+06  0.61930E+06  0.53114E+06  0.51967E+06  0.58104E+06
  0.63148E+06  0.66136E+06  0.67791E+06  0.69545E+06  0.69729E+06  0.71659E+06
  0.71989E+06  0.72428E+06  0.73010E+06  0.73784E+06  0.74814E+06  0.76189E+06
  0.78027E+06  0.80493E+06  0.83816E+06  0.88316E+06  0.94454E+06  0.10289E+07
  0.11461E+07  0.00000E+00  0.40516E+06  0.81019E+06  0.12149E+07  0.16194E+07
  0.20237E+07  0.24141E+07  0.28033E+07  0.31638E+07  0.35481E+07  0.35369E+07
  0.34808E+07  0.34247E+07  0.33687E+07  0.32004E+07  0.29198E+07  0.25832E+07
  0.21934E+07  0.18695E+07  0.15718E+07  0.12224E+07  0.10483E+07  0.10255E+07
  0.11464E+07  0.12456E+07  0.13041E+07  0.13361E+07  0.13699E+07  0.13725E+07
  0.14091E+07  0.14137E+07  0.14199E+07  0.14280E+07  0.14388E+07  0.14532E+07
  0.14723E+07  0.14978E+07  0.15319E+07  0.15776E+07  0.16392E+07  0.17224E+07
  0.18357E+07  0.19912E+07  0.00000E+00  0.00000E+00  0.00000E+00  0.00000E+00
  0.00000E+00  0.00000E+00  0.00000E+00  0.00000E+00  0.00000E+00  0.00000E+00
  0.00000E+00  0.00000E+00  0.00000E+00  0.00000E+00  0.00000E+00  0.00000E+00
  0.00000E+00  0.00000E+00  0.00000E+00  0.00000E+00  0.00000E+00  0.00000E+00
  0.00000E+00  0.00000E+00  0.00000E+00  0.00000E+00  0.00000E+00  0.00000E+00
  0.00000E+00  0.00000E+00  0.00000E+00  0.00000E+00  0.00000E+00  0.00000E+00
  0.00000E+00  0.00000E+00  0.00000E+00  0.00000E+00  0.00000E+00  0.00000E+00
  0.00000E+00  0.00000E+00  0.00000E+00  0.00000E+00  0.00000E+00  0.00000E+00
  0.00000E+00  0.00000E+00  0.00000E+00  0.00000E+00  0.00000E+00  0.00000E+00
  0.00000E+00  0.35888E-05  0.13701E-04  0.41526E-04  0.11237E-03  0.26762E-03
  0.60879E-03  0.14358E-02  0.31945E-02  0.71950E-02  0.14683E-01  0.54065E-01
  0.14896E+00  0.33999E+00  0.74668E+00  0.15933E+01  0.32624E+01  0.67895E+01
  0.13632E+02  0.27822E+02  0.55815E+02  0.11197E+03  0.22455E+03  0.45025E+03
  0.88889E+03  0.17549E+04  0.34647E+04  0.68401E+04  0.13504E+05  0.26662E+05
  0.52638E+05  0.10393E+06  0.20518E+06  0.40512E+06  0.00000E+00  0.00000E+00
  0.00000E+00  0.00000E+00  0.00000E+00  0.00000E+00  0.00000E+00  0.00000E+00
  0.00000E+00  0.00000E+00  0.74855E-05  0.28319E-04  0.85181E-04  0.22909E-03
  0.54307E-03  0.12308E-02  0.28960E-02  0.64285E-02  0.14456E-01  0.29467E-01
  0.10836E+00  0.29831E+00  0.68059E+00  0.14942E+01  0.31877E+01  0.65263E+01
  0.13581E+02  0.27264E+02  0.55643E+02  0.11162E+03  0.22392E+03  0.44906E+03
  0.90040E+03  0.17776E+04  0.35093E+04  0.69284E+04  0.13678E+05  0.27004E+05
  0.53316E+05  0.10526E+06  0.20782E+06  0.41030E+06  0.81013E+06  0.00000E+00
  0.00000E+00  0.00000E+00  0.00000E+00  0.00000E+00  0.00000E+00  0.00000E+00
  0.00000E+00  0.00000E+00  0.00000E+00  0.11780E-04  0.44139E-04  0.13157E-03
  0.35155E-03  0.82899E-03  0.18707E-02  0.43859E-02  0.97133E-02  0.21803E-01
  0.44377E-01  0.16285E+00  0.44810E+00  0.10219E+01  0.22427E+01  0.47832E+01
  0.97909E+01  0.20371E+02  0.40893E+02  0.83452E+02  0.16740E+03  0.33580E+03
  0.67343E+03  0.13502E+04  0.26656E+04  0.52624E+04  0.10390E+05  0.20511E+05
  0.40494E+05  0.79949E+05  0.15784E+06  0.31164E+06  0.61526E+06  0.12148E+07
  0.00000E+00  0.00000E+00  0.00000E+00  0.00000E+00  0.00000E+00  0.00000E+00
  0.00000E+00  0.00000E+00  0.00000E+00  0.00000E+00  0.16692E-04  0.61766E-04
  0.18210E-03  0.48252E-03  0.11298E-02  0.25365E-02  0.59215E-02  0.13074E-01
  0.29283E-01  0.59481E-01  0.21774E+00  0.59864E+00  0.13643E+01  0.29928E+01
  0.63809E+01  0.13058E+02  0.27164E+02  0.54523E+02  0.11126E+03  0.22317E+03
  0.44764E+03  0.89770E+03  0.17999E+04  0.35532E+04  0.70146E+04  0.13849E+05
  0.27340E+05  0.53977E+05  0.10657E+06  0.21039E+06  0.41539E+06  0.82010E+06
  0.16193E+07  0.00000E+00  0.00000E+00  0.00000E+00  0.00000E+00  0.00000E+00
  0.00000E+00  0.00000E+00  0.00000E+00  0.00000E+00  0.00000E+00  0.22357E-04
  0.81671E-04  0.23791E-03  0.62425E-03  0.14501E-02  0.32337E-02  0.75151E-02
  0.16527E-01  0.36910E-01  0.74812E-01  0.27305E+00  0.75007E+00  0.17081E+01
  0.37449E+01  0.79812E+01  0.16328E+02  0.33961E+02  0.68153E+02  0.13906E+03
  0.27891E+03  0.55942E+03  0.11218E+04  0.22492E+04  0.44401E+04  0.87655E+04
  0.17305E+05  0.34164E+05  0.67447E+05  0.13316E+06  0.26290E+06  0.51905E+06
  0.10248E+07  0.20234E+07  0.00000E+00  0.00000E+00  0.00000E+00  0.00000E+00
  0.00000E+00  0.00000E+00  0.00000E+00  0.00000E+00  0.00000E+00  0.00000E+00
  0.23974E-04  0.93172E-04  0.27602E-03  0.73563E-03  0.17161E-02  0.38304E-02
  0.89213E-02  0.19631E-01  0.43889E-01  0.88992E-01  0.32480E+00  0.89268E+00
  0.20338E+01  0.44602E+01  0.95067E+01  0.19447E+02  0.40452E+02  0.81174E+02
  0.16564E+03  0.33223E+03  0.66640E+03  0.13364E+04  0.26797E+04  0.52898E+04
  0.10443E+05  0.20616E+05  0.40699E+05  0.80349E+05  0.15863E+06  0.31319E+06
  0.61834E+06  0.12208E+07  0.24104E+07  0.00000E+00  0.00000E+00  0.00000E+00
  0.00000E+00  0.00000E+00  0.00000E+00  0.00000E+00  0.00000E+00  0.00000E+00
  0.00000E+00  0.27494E-04  0.11151E-03  0.33105E-03  0.88357E-03  0.20499E-02
  0.45444E-02  0.10541E-01  0.23098E-01  0.51493E-01  0.10415E+00  0.37867E+00
  0.10397E+01  0.23671E+01  0.51881E+01  0.11053E+02  0.22600E+02  0.47002E+02
  0.94293E+02  0.19240E+03  0.38587E+03  0.77395E+03  0.15521E+04  0.31121E+04
  0.61432E+04  0.12127E+05  0.23941E+05  0.47262E+05  0.93305E+05  0.18421E+06
  0.36368E+06  0.71803E+06  0.14176E+07  0.27989E+07  0.00000E+00  0.00000E+00
  0.00000E+00  0.00000E+00  0.00000E+00  0.00000E+00  0.00000E+00  0.00000E+00
  0.00000E+00  0.00000E+00  0.21341E-04  0.10804E-03  0.34486E-03  0.96804E-03
  0.22804E-02  0.50778E-02  0.11846E-01  0.25988E-01  0.58049E-01  0.11746E+00
  0.42666E+00  0.11725E+01  0.26712E+01  0.58559E+01  0.12477E+02  0.25502E+02
  0.53046E+02  0.10640E+03  0.21713E+03  0.43546E+03  0.87345E+03  0.17518E+04
  0.35130E+04  0.69341E+04  0.13688E+05  0.27021E+05  0.53341E+05  0.10531E+06
  0.20790E+06  0.41045E+06  0.81036E+06  0.15999E+07  0.31588E+07  0.00000E+00
  0.00000E+00  0.00000E+00  0.00000E+00  0.00000E+00  0.00000E+00  0.00000E+00
  0.00000E+00  0.00000E+00  0.00000E+00  0.25107E-04  0.12720E-03  0.41188E-03
  0.11630E-02  0.27145E-02  0.59717E-02  0.13804E-01  0.30018E-01  0.66603E-01
  0.13400E+00  0.48281E+00  0.13230E+01  0.30080E+01  0.65838E+01  0.14011E+02
  0.28612E+02  0.59483E+02  0.11925E+03  0.24329E+03  0.48781E+03  0.97834E+03
  0.19620E+04  0.39344E+04  0.77653E+04  0.15327E+05  0.30257E+05  0.59728E+05
  0.11791E+06  0.23279E+06  0.45957E+06  0.90734E+06  0.17913E+07  0.35368E+07
  0.00000E+00  0.00000E+00  0.00000E+00  0.00000E+00  0.00000E+00  0.00000E+00
  0.00000E+00  0.00000E+00  0.00000E+00  0.00000E+00  0.00000E+00  0.14770E-03
  0.47761E-03  0.13689E-02  0.31534E-02  0.67439E-02  0.15205E-01  0.32286E-01
  0.70276E-01  0.14232E+00  0.52023E+00  0.13243E+01  0.30042E+01  0.65639E+01
  0.13950E+02  0.28453E+02  0.59116E+02  0.11844E+03  0.24157E+03  0.48424E+03
  0.97102E+03  0.19472E+04  0.39046E+04  0.77057E+04  0.15209E+05  0.30021E+05
  0.59260E+05  0.11698E+06  0.23095E+06  0.45594E+06  0.90016E+06  0.17771E+07
  0.35088E+07  0.00000E+00  0.00000E+00  0.00000E+00  0.00000E+00  0.00000E+00
  0.00000E+00  0.00000E+00  0.00000E+00  0.00000E+00  0.00000E+00  0.00000E+00
  0.00000E+00  0.39952E-03  0.12716E-02  0.31076E-02  0.67675E-02  0.15401E-01
  0.32586E-01  0.70622E-01  0.14413E+00  0.53116E+00  0.13012E+01  0.29516E+01
  0.64456E+01  0.13690E+02  0.27893E+02  0.57946E+02  0.11602E+03  0.23665E+03
  0.47429E+03  0.95106E+03  0.19073E+04  0.38253E+04  0.75480E+04  0.14896E+05
  0.29402E+05  0.58034E+05  0.11456E+06  0.22616E+06  0.44648E+06  0.88146E+06
  0.17402E+07  0.34359E+07  0.00000E+00  0.39935E-04  0.81871E-04  0.12652E-03
  0.17515E-03  0.22873E-03  0.26542E-03  0.31838E-03  0.33158E-03  0.39606E-03
  0.37829E-03  0.00000E+00  0.00000E+00  0.11912E-02  0.30278E-02  0.67671E-02
  0.15700E-01  0.33145E-01  0.71668E-01  0.14638E+00  0.53881E+00  0.12886E+01
  0.29176E+01  0.63595E+01  0.13486E+02  0.27428E+02  0.56943E+02  0.11389E+03
  0.23226E+03  0.46534E+03  0.93297E+03  0.18710E+04  0.37527E+04  0.74034E+04
  0.14609E+05  0.28832E+05  0.56906E+05  0.11233E+06  0.22174E+06  0.43775E+06
  0.86422E+06  0.17061E+07  0.33686E+07  0.00000E+00  0.12265E-03  0.25006E-03
  0.38380E-03  0.52669E-03  0.68146E-03  0.80296E-03  0.96453E-03  0.10567E-02
  0.12696E-02  0.14199E-02  0.12503E-02  0.00000E+00  0.00000E+00  0.25972E-02
  0.59009E-02  0.14550E-01  0.31629E-01  0.69616E-01  0.14372E+00  0.53008E+00
  0.12525E+01  0.28372E+01  0.61794E+01  0.13090E+02  0.26573E+02  0.55154E+02
  0.11019E+03  0.22472E+03  0.45008E+03  0.90233E+03  0.18098E+04  0.36307E+04
  0.71610E+04  0.14128E+05  0.27879E+05  0.55021E+05  0.10860E+06  0.21438E+06
  0.42319E+06  0.83546E+06  0.16493E+07  0.32564E+07  0.00000E+00  0.29578E-03
  0.60034E-03  0.91606E-03  0.12486E-02  0.16023E-02  0.18967E-02  0.22653E-02
  0.25202E-02  0.30000E-02  0.33361E-02  0.32049E-02  0.30525E-02  0.24467E-02
  0.00000E+00  0.56056E-02  0.13490E-01  0.30050E-01  0.67971E-01  0.14159E+00
  0.52233E+00  0.12251E+01  0.27723E+01  0.60249E+01  0.12734E+02  0.25776E+02
  0.53453E+02  0.10661E+03  0.21735E+03  0.43509E+03  0.87206E+03  0.17491E+04
  0.35095E+04  0.69197E+04  0.13649E+05  0.26929E+05  0.53139E+05  0.10488E+06
  0.20702E+06  0.40864E+06  0.80671E+06  0.15925E+07  0.31442E+07  0.00000E+00
  0.66393E-03  0.13427E-02  0.20397E-02  0.27656E-02  0.35266E-02  0.41772E-02
  0.49565E-02  0.55379E-02  0.65119E-02  0.70988E-02  0.69750E-02  0.68897E-02
  0.59714E-02  0.56393E-02  0.00000E+00  0.13411E-01  0.29082E-01  0.66996E-01
  0.14089E+00  0.51784E+00  0.12086E+01  0.27272E+01  0.59030E+01  0.12430E+02
  0.25055E+02  0.51866E+02  0.10319E+03  0.21023E+03  0.42044E+03  0.84229E+03
  0.16891E+04  0.33893E+04  0.66798E+04  0.13171E+05  0.25982E+05  0.51262E+05
  0.10116E+06  0.19966E+06  0.39410E+06  0.77798E+06  0.15358E+07  0.30321E+07
  0.00000E+00  0.15344E-02  0.30941E-02  0.46867E-02  0.63282E-02  0.80285E-02
  0.95317E-02  0.11263E-01  0.12657E-01  0.14749E-01  0.15800E-01  0.15744E-01
  0.15888E-01  0.14664E-01  0.13543E-01  0.13437E-01  0.00000E+00  0.27923E-01
  0.61768E-01  0.13225E+00  0.49263E+00  0.11582E+01  0.26203E+01  0.56613E+01
  0.11886E+02  0.23847E+02  0.49301E+02  0.97809E+02  0.19917E+03  0.39793E+03
  0.79687E+03  0.15980E+04  0.32075E+04  0.63178E+04  0.12452E+05  0.24556E+05
  0.48439E+05  0.95576E+05  0.18862E+06  0.37228E+06  0.73485E+06  0.14506E+07
  0.28638E+07  0.00000E+00  0.33485E-02  0.67384E-02  0.10178E-01  0.13701E-01
  0.17320E-01  0.20573E-01  0.24207E-01  0.27234E-01  0.31458E-01  0.33139E-01
  0.33042E-01  0.33471E-01  0.31754E-01  0.30168E-01  0.29138E-01  0.27923E-01
  0.00000E+00  0.62501E-01  0.12746E+00  0.47059E+00  0.11182E+01  0.25346E+01
  0.54573E+01  0.11403E+02  0.22730E+02  0.46877E+02  0.92625E+02  0.18841E+03
  0.37585E+03  0.75208E+03  0.15079E+04  0.30271E+04  0.59578E+04  0.11736E+05
  0.23135E+05  0.45622E+05  0.90000E+05  0.17759E+06  0.35047E+06  0.69176E+06
  0.13655E+07  0.26957E+07  0.00000E+00  0.74188E-02  0.14899E-01  0.22474E-01
  0.30180E-01  0.38036E-01  0.45232E-01  0.53073E-01  0.59833E-01  0.68646E-01
  0.71405E-01  0.71187E-01  0.72090E-01  0.69890E-01  0.68108E-01  0.66996E-01
  0.61768E-01  0.62382E-01  0.00000E+00  0.12823E+00  0.43227E+00  0.10402E+01
  0.23782E+01  0.51224E+01  0.10669E+02  0.21112E+02  0.43464E+02  0.85460E+02
  0.17371E+03  0.34593E+03  0.69171E+03  0.13868E+04  0.27853E+04  0.54763E+04
  0.10780E+05  0.21238E+05  0.41867E+05  0.82569E+05  0.16290E+06  0.32143E+06
  0.63438E+06  0.12521E+07  0.24718E+07  0.00000E+00  0.15360E-01  0.30825E-01
  0.46408E-01  0.62207E-01  0.78245E-01  0.93079E-01  0.10893E+00  0.12284E+00
  0.14015E+00  0.14578E+00  0.14586E+00  0.14753E+00  0.14429E+00  0.14186E+00
  0.14117E+00  0.13225E+00  0.12721E+00  0.12772E+00  0.00000E+00  0.00000E+00
  0.98989E+00  0.22530E+01  0.48335E+01  0.10007E+02  0.19606E+02  0.40225E+02
  0.78565E+02  0.15943E+03  0.31667E+03  0.63240E+03  0.12674E+04  0.25463E+04
  0.49996E+04  0.98318E+04  0.19357E+05  0.38139E+05  0.75191E+05  0.14830E+06
  0.29259E+06  0.57737E+06  0.11395E+07  0.22493E+07  0.00000E+00  0.57658E-01
  0.11559E+00  0.17373E+00  0.23228E+00  0.29128E+00  0.34649E+00  0.40396E+00
  0.45515E+00  0.51505E+00  0.53850E+00  0.54188E+00  0.54526E+00  0.53321E+00
  0.52333E+00  0.51784E+00  0.49263E+00  0.47059E+00  0.43227E+00  0.00000E+00
  0.00000E+00  0.11256E+01  0.23016E+01  0.46951E+01  0.93848E+01  0.17761E+02
  0.35752E+02  0.68321E+02  0.13726E+03  0.26991E+03  0.53571E+03  0.10701E+04
  0.21471E+04  0.41986E+04  0.82326E+04  0.16175E+05  0.31822E+05  0.62669E+05
  0.12351E+06  0.24354E+06  0.48041E+06  0.94787E+06  0.18707E+07  0.00000E+00
  0.14896E+00  0.29831E+00  0.44810E+00  0.59864E+00  0.75007E+00  0.89268E+00
  0.10397E+01  0.11725E+01  0.13230E+01  0.13243E+01  0.13012E+01  0.12886E+01
  0.12525E+01  0.12251E+01  0.12086E+01  0.11582E+01  0.11182E+01  0.10402E+01
  0.98989E+00  0.11256E+01  0.14978E+01  0.25319E+01  0.47138E+01  0.89613E+01
  0.16371E+02  0.32190E+02  0.60249E+02  0.11962E+03  0.23284E+03  0.45908E+03
  0.91346E+03  0.18294E+04  0.35637E+04  0.69685E+04  0.13664E+05  0.26845E+05
  0.52815E+05  0.10402E+06  0.20500E+06  0.40423E+06  0.79735E+06  0.15733E+07
  0.00000E+00  0.33999E+00  0.68059E+00  0.10219E+01  0.13643E+01  0.17081E+01
  0.20338E+01  0.23671E+01  0.26712E+01  0.30080E+01  0.30042E+01  0.29516E+01
  0.29176E+01  0.28372E+01  0.27723E+01  0.27272E+01  0.26203E+01  0.25346E+01
  0.23782E+01  0.22530E+01  0.23016E+01  0.25319E+01  0.34240E+01  0.54697E+01
  0.94581E+01  0.16314E+02  0.30579E+02  0.55433E+02  0.10734E+03  0.20524E+03
  0.39947E+03  0.78773E+03  0.15682E+04  0.30387E+04  0.59193E+04  0.11575E+05
  0.22696E+05  0.44590E+05  0.87730E+05  0.17278E+06  0.34052E+06  0.67144E+06
  0.13245E+07  0.00000E+00  0.74668E+00  0.14942E+01  0.22427E+01  0.29928E+01
  0.37449E+01  0.44602E+01  0.51881E+01  0.58559E+01  0.65838E+01  0.65639E+01
  0.64456E+01  0.63595E+01  0.61794E+01  0.60249E+01  0.59030E+01  0.56613E+01
  0.54573E+01  0.51224E+01  0.48335E+01  0.46951E+01  0.47138E+01  0.54697E+01
  0.75280E+01  0.11605E+02  0.18590E+02  0.32483E+02  0.56353E+02  0.10482E+03
  0.19498E+03  0.37156E+03  0.72106E+03  0.14185E+04  0.27287E+04  0.52875E+04
  0.10300E+05  0.20141E+05  0.39493E+05  0.77592E+05  0.15266E+06  0.30065E+06
  0.59252E+06  0.11684E+07  0.00000E+00  0.15933E+01  0.31877E+01  0.47832E+01
  0.63809E+01  0.79812E+01  0.95067E+01  0.11053E+02  0.12477E+02  0.14011E+02
  0.13950E+02  0.13690E+02  0.13486E+02  0.13090E+02  0.12734E+02  0.12430E+02
  0.11886E+02  0.11403E+02  0.10669E+02  0.10007E+02  0.93848E+01  0.89613E+01
  0.94581E+01  0.11605E+02  0.16076E+02  0.23815E+02  0.38418E+02  0.63208E+02
  0.11166E+03  0.20033E+03  0.37090E+03  0.70366E+03  0.13602E+04  0.25907E+04
  0.49836E+04  0.96573E+04  0.18812E+05  0.36786E+05  0.72131E+05  0.14171E+06
  0.27882E+06  0.54910E+06  0.10823E+07  0.00000E+00  0.32624E+01  0.65263E+01
  0.97909E+01  0.13058E+02  0.16328E+02  0.19447E+02  0.22600E+02  0.25502E+02
  0.28612E+02  0.28453E+02  0.27893E+02  0.27428E+02  0.26573E+02  0.25776E+02
  0.25055E+02  0.23847E+02  0.22730E+02  0.21112E+02  0.19606E+02  0.17761E+02
  0.16371E+02  0.16314E+02  0.18590E+02  0.23815E+02  0.32938E+02  0.49474E+02
  0.76957E+02  0.12888E+03  0.22187E+03  0.39715E+03  0.73357E+03  0.13888E+04
  0.26096E+04  0.49703E+04  0.95617E+04  0.18528E+05  0.36092E+05  0.70577E+05
  0.13839E+06  0.27190E+06  0.53493E+06  0.10536E+07  0.00000E+00  0.67895E+01
  0.13581E+02  0.20371E+02  0.27164E+02  0.33961E+02  0.40452E+02  0.47002E+02
  0.53046E+02  0.59483E+02  0.59116E+02  0.57946E+02  0.56943E+02  0.55154E+02
  0.53453E+02  0.51866E+02  0.49301E+02  0.46877E+02  0.43464E+02  0.40225E+02
  0.35752E+02  0.32190E+02  0.30579E+02  0.32483E+02  0.38418E+02  0.49474E+02
  0.68576E+02  0.10014E+03  0.15715E+03  0.25703E+03  0.44051E+03  0.78512E+03
  0.14443E+04  0.26655E+04  0.50088E+04  0.95402E+04  0.18352E+05  0.35561E+05
  0.69275E+05  0.13546E+06  0.26563E+06  0.52187E+06  0.10268E+07  0.00000E+00
  0.13632E+02  0.27264E+02  0.40893E+02  0.54523E+02  0.68153E+02  0.81174E+02
  0.94293E+02  0.10640E+03  0.11925E+03  0.11844E+03  0.11602E+03  0.11389E+03
  0.11019E+03  0.10661E+03  0.10319E+03  0.97809E+02  0.92625E+02  0.85460E+02
  0.78565E+02  0.68321E+02  0.60249E+02  0.55433E+02  0.56353E+02  0.63208E+02
  0.76957E+02  0.10014E+03  0.13772E+03  0.20344E+03  0.31536E+03  0.51564E+03
  0.88336E+03  0.15737E+04  0.28364E+04  0.52348E+04  0.98370E+04  0.18735E+05
  0.36041E+05  0.69840E+05  0.13605E+06  0.26605E+06  0.52166E+06  0.10250E+07
  0.00000E+00  0.27822E+02  0.55643E+02  0.83452E+02  0.11126E+03  0.13906E+03
  0.16564E+03  0.19240E+03  0.21713E+03  0.24329E+03  0.24157E+03  0.23665E+03
  0.23226E+03  0.22472E+03  0.21735E+03  0.21023E+03  0.19917E+03  0.18841E+03
  0.17371E+03  0.15943E+03  0.13726E+03  0.11962E+03  0.10734E+03  0.10482E+03
  0.11166E+03  0.12888E+03  0.15715E+03  0.20344E+03  0.28115E+03  0.41031E+03
  0.63456E+03  0.10351E+04  0.17690E+04  0.30935E+04  0.55758E+04  0.10291E+05
  0.19337E+05  0.36829E+05  0.70850E+05  0.13729E+06  0.26745E+06  0.52298E+06
  0.10256E+07  0.00000E+00  0.55815E+02  0.11162E+03  0.16740E+03  0.22317E+03
  0.27891E+03  0.33223E+03  0.38587E+03  0.43546E+03  0.48781E+03  0.48424E+03
  0.47429E+03  0.46534E+03  0.45008E+03  0.43509E+03  0.42044E+03  0.39793E+03
  0.37585E+03  0.34593E+03  0.31667E+03  0.26991E+03  0.23284E+03  0.20524E+03
  0.19498E+03  0.20033E+03  0.22187E+03  0.25703E+03  0.31536E+03  0.41031E+03
  0.56411E+03  0.82321E+03  0.12728E+04  0.20756E+04  0.34957E+04  0.61130E+04
  0.11019E+05  0.20335E+05  0.38212E+05  0.72781E+05  0.14001E+06  0.27131E+06
