  0.00000E+00  0.12366E+06  0.24736E+06  0.37104E+06  0.37104E+06  0.37105E+06
  0.37106E+06  0.37106E+06  0.37106E+06  0.37103E+06  0.37097E+06  0.37087E+06
  0.37073E+06  0.37043E+06  0.36996E+06  0.36939E+06  0.36858E+06  0.36756E+06
  0.36634E+06  0.36501E+06  0.36280E+06  0.36002E+06  0.35746E+06  0.35368E+06
  0.34948E+06  0.34638E+06  0.34226E+06  0.33870E+06  0.33584E+06  0.33538E+06
  0.33685E+06  0.34300E+06  0.35284E+06  0.35921E+06  0.37513E+06  0.39569E+06
  0.42236E+06  0.45720E+06  0.50306E+06  0.56397E+06  0.64567E+06  0.75645E+06
  0.90851E+06  0.00000E+00  0.00000E+00  0.00000E+00  0.00000E+00  0.00000E+00
  0.00000E+00  0.00000E+00  0.00000E+00  0.00000E+00  0.00000E+00  0.00000E+00
  0.00000E+00  0.00000E+00  0.00000E+00  0.00000E+00  0.00000E+00  0.00000E+00
  0.00000E+00  0.00000E+00  0.00000E+00  0.00000E+00  0.00000E+00  0.00000E+00
  0.00000E+00  0.00000E+00  0.00000E+00  0.00000E+00  0.00000E+00  0.00000E+00
  0.00000E+00  0.00000E+00  0.00000E+00  0.00000E+00  0.00000E+00  0.00000E+00
  0.00000E+00  0.00000E+00  0.00000E+00  0.00000E+00  0.00000E+00  0.00000E+00
  0.00000E+00  0.00000E+00  0.00000E+00  0.00000E+00  0.00000E+00  0.00000E+00
  0.00000E+00  0.00000E+00  0.00000E+00  0.19267E-07  0.10998E-06  0.00000E+00
  0.00000E+00  0.00000E+00  0.00000E+00  0.95035E-04  0.23991E-03  0.54678E-03
  0.12118E-02  0.25984E-02  0.54108E-02  0.10870E-01  0.22902E-01  0.47582E-01
  0.94387E-01  0.18935E+00  0.37218E+00  0.68978E+00  0.12975E+01  0.23807E+01
  0.42889E+01  0.74351E+01  0.12655E+02  0.20531E+02  0.32574E+02  0.55869E+02
  0.88654E+02  0.14069E+03  0.22329E+03  0.35437E+03  0.56248E+03  0.89278E+03
  0.14171E+04  0.22493E+04  0.35704E+04  0.00000E+00  0.00000E+00  0.00000E+00
  0.00000E+00  0.00000E+00  0.00000E+00  0.00000E+00  0.42591E-07  0.24074E-06
  0.00000E+00  0.00000E+00  0.00000E+00  0.00000E+00  0.19751E-03  0.49501E-03
  0.11218E-02  0.24729E-02  0.52821E-02  0.10963E-01  0.21968E-01  0.46191E-01
  0.95803E-01  0.18973E+00  0.38021E+00  0.74667E+00  0.13829E+01  0.25998E+01
  0.47682E+01  0.85870E+01  0.14882E+02  0.25325E+02  0.41078E+02  0.65164E+02
  0.11175E+03  0.17732E+03  0.28138E+03  0.44654E+03  0.70865E+03  0.11248E+04
  0.17852E+04  0.28337E+04  0.44976E+04  0.71391E+04  0.00000E+00  0.00000E+00
  0.00000E+00  0.00000E+00  0.00000E+00  0.00000E+00  0.00000E+00  0.70776E-07
  0.39855E-06  0.00000E+00  0.00000E+00  0.00000E+00  0.00000E+00  0.31038E-03
  0.77147E-03  0.17359E-02  0.38041E-02  0.80875E-02  0.16719E-01  0.33384E-01
  0.70013E-01  0.14491E+00  0.28662E+00  0.57359E+00  0.11252E+01  0.20822E+01
  0.39117E+01  0.71704E+01  0.12908E+02  0.22362E+02  0.38043E+02  0.61694E+02
  0.97850E+02  0.16779E+03  0.26619E+03  0.42238E+03  0.67025E+03  0.10636E+04
  0.16881E+04  0.26792E+04  0.42526E+04  0.67496E+04  0.10713E+05  0.00000E+00
  0.00000E+00  0.00000E+00  0.00000E+00  0.00000E+00  0.00000E+00  0.00000E+00
  0.10294E-06  0.58633E-06  0.00000E+00  0.00000E+00  0.00000E+00  0.00000E+00
  0.43746E-03  0.10776E-02  0.24030E-02  0.52326E-02  0.11053E-01  0.22740E-01
  0.45236E-01  0.94566E-01  0.19522E+00  0.38528E+00  0.76975E+00  0.15080E+01
  0.27875E+01  0.52322E+01  0.95845E+01  0.17244E+02  0.29861E+02  0.50783E+02
  0.82331E+02  0.13055E+03  0.22382E+03  0.35505E+03  0.56330E+03  0.89380E+03
  0.14183E+04  0.22509E+04  0.35722E+04  0.56698E+04  0.89987E+04  0.14283E+05
  0.00000E+00  0.00000E+00  0.00000E+00  0.00000E+00  0.00000E+00  0.00000E+00
  0.00000E+00  0.13564E-06  0.80345E-06  0.00000E+00  0.00000E+00  0.00000E+00
  0.00000E+00  0.58417E-03  0.14239E-02  0.31452E-02  0.67914E-02  0.14249E-01
  0.29142E-01  0.57683E-01  0.12012E+00  0.24718E+00  0.48653E+00  0.97003E+00
  0.18972E+01  0.35022E+01  0.65667E+01  0.12019E+02  0.21608E+02  0.37399E+02
  0.63575E+02  0.10303E+03  0.16333E+03  0.27997E+03  0.44403E+03  0.70437E+03
  0.11175E+04  0.17731E+04  0.28138E+04  0.44654E+04  0.70871E+04  0.11248E+05
  0.17852E+05  0.00000E+00  0.00000E+00  0.00000E+00  0.00000E+00  0.00000E+00
  0.00000E+00  0.00000E+00  0.15402E-06  0.10195E-05  0.00000E+00  0.00000E+00
  0.00000E+00  0.00000E+00  0.75715E-03  0.18251E-02  0.39883E-02  0.85294E-02
  0.17750E-01  0.36042E-01  0.70935E-01  0.14702E+00  0.30136E+00  0.59127E+00
  0.11758E+01  0.22950E+01  0.42295E+01  0.79199E+01  0.14480E+02  0.26011E+02
  0.44989E+02  0.76435E+02  0.12382E+03  0.19622E+03  0.33624E+03  0.53316E+03
  0.84561E+03  0.13414E+04  0.21281E+04  0.33768E+04  0.53585E+04  0.85042E+04
  0.13496E+05  0.21420E+05  0.00000E+00  0.00000E+00  0.00000E+00  0.00000E+00
  0.00000E+00  0.00000E+00  0.00000E+00  0.11549E-06  0.11369E-05  0.00000E+00
  0.00000E+00  0.00000E+00  0.00000E+00  0.96449E-03  0.22995E-02  0.49670E-02
  0.10509E-01  0.21660E-01  0.43631E-01  0.85266E-01  0.17572E+00  0.35852E+00
  0.70080E+00  0.13893E+01  0.27048E+01  0.49745E+01  0.92996E+01  0.16980E+02
  0.30470E+02  0.52656E+02  0.89400E+02  0.14474E+03  0.22927E+03  0.39275E+03
  0.62259E+03  0.98724E+03  0.15658E+04  0.24837E+04  0.39407E+04  0.62527E+04
  0.99225E+04  0.15746E+05  0.24990E+05  0.00000E+00  0.00000E+00  0.00000E+00
  0.00000E+00  0.00000E+00  0.00000E+00  0.00000E+00  0.11039E-06  0.82364E-06
  0.00000E+00  0.00000E+00  0.00000E+00  0.00000E+00  0.12121E-02  0.28657E-02
  0.61196E-02  0.12802E-01  0.26113E-01  0.52111E-01  0.10101E+00  0.20679E+00
  0.41958E+00  0.81627E+00  0.16122E+01  0.31291E+01  0.57402E+01  0.10710E+02
  0.19523E+02  0.34987E+02  0.60399E+02  0.10246E+03  0.16577E+03  0.26243E+03
  0.44938E+03  0.71210E+03  0.11288E+04  0.17900E+04  0.28388E+04  0.45035E+04
  0.71449E+04  0.11337E+05  0.17990E+05  0.28550E+05  0.00000E+00  0.00000E+00
  0.00000E+00  0.00000E+00  0.00000E+00  0.00000E+00  0.00000E+00  0.85084E-06
  0.76012E-06  0.00000E+00  0.00000E+00  0.00000E+00  0.00000E+00  0.15019E-02
  0.35417E-02  0.74905E-02  0.15498E-01  0.31263E-01  0.61747E-01  0.11859E+00
  0.24095E+00  0.48573E+00  0.93969E+00  0.18476E+01  0.35728E+01  0.65340E+01
  0.12161E+02  0.22124E+02  0.39587E+02  0.68250E+02  0.11566E+03  0.18696E+03
  0.29577E+03  0.50621E+03  0.80180E+03  0.12706E+04  0.20142E+04  0.31936E+04
  0.50655E+04  0.80354E+04  0.12749E+05  0.20228E+05  0.32099E+05  0.00000E+00
  0.00000E+00  0.00000E+00  0.00000E+00  0.00000E+00  0.00000E+00  0.00000E+00
  0.30311E-05  0.60340E-05  0.00000E+00  0.00000E+00  0.00000E+00  0.00000E+00
  0.18082E-02  0.43169E-02  0.90947E-02  0.18663E-01  0.37260E-01  0.72816E-01
  0.13847E+00  0.27897E+00  0.55828E+00  0.10730E+01  0.20988E+01  0.40409E+01
  0.73628E+01  0.13663E+02  0.24798E+02  0.44285E+02  0.76228E+02  0.12901E+03
  0.20832E+03  0.32927E+03  0.56321E+03  0.89158E+03  0.14122E+04  0.22379E+04
  0.35474E+04  0.56253E+04  0.89219E+04  0.14154E+05  0.22454E+05  0.35628E+05
  0.00000E+00  0.00000E+00  0.00000E+00  0.00000E+00  0.00000E+00  0.00000E+00
  0.00000E+00  0.85905E-05  0.19975E-04  0.00000E+00  0.00000E+00  0.00000E+00
  0.00000E+00  0.20833E-02  0.51705E-02  0.10956E-01  0.22400E-01  0.44338E-01
  0.85736E-01  0.16132E+00  0.32209E+00  0.63933E+00  0.12197E+01  0.23713E+01
  0.45419E+01  0.82388E+01  0.15235E+02  0.27570E+02  0.49119E+02  0.84383E+02
  0.14259E+03  0.22994E+03  0.36303E+03  0.62050E+03  0.98158E+03  0.15539E+04
  0.24613E+04  0.39002E+04  0.61830E+04  0.98041E+04  0.15550E+05  0.24666E+05
  0.39134E+05  0.00000E+00  0.00000E+00  0.00000E+00  0.00000E+00  0.00000E+00
  0.00000E+00  0.00000E+00  0.21951E-04  0.53893E-04  0.00000E+00  0.00000E+00
  0.00000E+00  0.00000E+00  0.21953E-02  0.59990E-02  0.13030E-01  0.26770E-01
  0.52721E-01  0.10102E+00  0.18800E+00  0.37187E+00  0.73153E+00  0.13837E+01
  0.26710E+01  0.50849E+01  0.91745E+01  0.16893E+02  0.30463E+02  0.54116E+02
  0.92745E+02  0.15641E+03  0.25181E+03  0.39700E+03  0.67797E+03  0.10715E+04
  0.16951E+04  0.26835E+04  0.42503E+04  0.67356E+04  0.10677E+05  0.16932E+05
  0.26853E+05  0.42597E+05  0.00000E+00  0.00000E+00  0.00000E+00  0.00000E+00
  0.00000E+00  0.00000E+00  0.00000E+00  0.57215E-04  0.14424E-03  0.00000E+00
  0.00000E+00  0.00000E+00  0.00000E+00  0.15404E-02  0.61358E-02  0.14600E-01
  0.31041E-01  0.61690E-01  0.11791E+00  0.21779E+00  0.42776E+00  0.83469E+00
  0.15649E+01  0.29988E+01  0.56716E+01  0.10171E+02  0.18638E+02  0.33474E+02
  0.59266E+02  0.10128E+03  0.17041E+03  0.27377E+03  0.43088E+03  0.73507E+03
  0.11605E+04  0.18342E+04  0.29016E+04  0.45932E+04  0.72759E+04  0.11530E+05
  0.18278E+05  0.28982E+05  0.45965E+05  0.00000E+00  0.00000E+00  0.00000E+00
  0.00000E+00  0.00000E+00  0.56653E-03  0.13125E-02  0.20540E-02  0.26942E-02
  0.31412E-02  0.32040E-02  0.22696E-02  0.00000E+00  0.00000E+00  0.40865E-02
  0.13509E-01  0.31853E-01  0.65617E-01  0.12684E+00  0.23398E+00  0.45752E+00
  0.88739E+00  0.16399E+01  0.31201E+01  0.58605E+01  0.10439E+02  0.19025E+02
  0.34010E+02  0.59982E+02  0.10216E+03  0.17140E+03  0.27467E+03  0.43134E+03
  0.73501E+03  0.11588E+04  0.18295E+04  0.28916E+04  0.45740E+04  0.72414E+04
  0.11470E+05  0.18177E+05  0.28813E+05  0.45688E+05  0.00000E+00  0.00000E+00
  0.00000E+00  0.00000E+00  0.94792E-03  0.25887E-02  0.43001E-02  0.59227E-02
  0.73113E-02  0.84134E-02  0.90365E-02  0.90444E-02  0.78761E-02  0.00000E+00
  0.10891E-02  0.96458E-02  0.30326E-01  0.68135E-01  0.13542E+00  0.25145E+00
  0.49277E+00  0.94972E+00  0.17331E+01  0.32721E+01  0.60984E+01  0.10776E+02
  0.19515E+02  0.34690E+02  0.60891E+02  0.10327E+03  0.17267E+03  0.27583E+03
  0.43200E+03  0.73504E+03  0.11568E+04  0.18238E+04  0.28794E+04  0.45508E+04
  0.71995E+04  0.11397E+05  0.18053E+05  0.28607E+05  0.45349E+05  0.00000E+00
  0.11733E-03  0.23720E-03  0.36011E-03  0.33849E-02  0.67612E-02  0.10101E-01
  0.13128E-01  0.15676E-01  0.17635E-01  0.18937E-01  0.19391E-01  0.18784E-01
  0.15293E-01  0.00000E+00  0.33237E-02  0.27641E-01  0.71334E-01  0.14771E+00
  0.27608E+00  0.54175E+00  0.10375E+01  0.18685E+01  0.34915E+01  0.64406E+01
  0.11265E+02  0.20228E+02  0.35694E+02  0.62263E+02  0.10503E+03  0.17482E+03
  0.27816E+03  0.43417E+03  0.73721E+03  0.11577E+04  0.18221E+04  0.28726E+04
  0.45350E+04  0.71681E+04  0.11339E+05  0.17952E+05  0.28434E+05  0.45057E+05
  0.00000E+00  0.10726E-02  0.21625E-02  0.32763E-02  0.90757E-02  0.15152E-01
  0.20826E-01  0.25701E-01  0.29704E-01  0.32708E-01  0.34574E-01  0.35303E-01
  0.34590E-01  0.30307E-01  0.20263E-01  0.34352E-02  0.27877E-01  0.79322E-01
  0.16947E+00  0.31741E+00  0.61956E+00  0.11699E+01  0.20741E+01  0.38194E+01
  0.69470E+01  0.11990E+02  0.21289E+02  0.37199E+02  0.64352E+02  0.10779E+03
  0.17837E+03  0.28238E+03  0.43892E+03  0.74312E+03  0.11638E+04  0.18277E+04
  0.28765E+04  0.45347E+04  0.71597E+04  0.11316E+05  0.17902E+05  0.28339E+05
  0.44888E+05  0.00000E+00  0.38125E-02  0.76722E-02  0.11601E-01  0.22227E-01
  0.32688E-01  0.42000E-01  0.49707E-01  0.55705E-01  0.60062E-01  0.62736E-01
  0.63617E-01  0.62513E-01  0.56526E-01  0.42858E-01  0.21078E-01  0.16561E-01
  0.11097E+00  0.19559E+00  0.36942E+00  0.71939E+00  0.13467E+01  0.23449E+01
  0.42506E+01  0.76108E+01  0.12937E+02  0.22668E+02  0.39153E+02  0.67060E+02
  0.11136E+03  0.18297E+03  0.28788E+03  0.44517E+03  0.75096E+03  0.11721E+04
  0.18358E+04  0.28829E+04  0.45369E+04  0.71532E+04  0.11293E+05  0.17850E+05
  0.28237E+05  0.44700E+05  0.00000E+00  0.10327E-01  0.20764E-01  0.31324E-01
  0.50280E-01  0.67910E-01  0.82742E-01  0.94637E-01  0.10363E+00  0.10985E+00
  0.11349E+00  0.11455E+00  0.11253E+00  0.10376E+00  0.84164E-01  0.54249E-01
  0.19012E-02  0.81778E-01  0.00000E+00  0.43652E+00  0.85010E+00  0.15766E+01
  0.27026E+01  0.48201E+01  0.84850E+01  0.14178E+02  0.24470E+02  0.41695E+02
  0.70574E+02  0.11600E+03  0.18893E+03  0.29504E+03  0.45336E+03  0.76131E+03
  0.11833E+04  0.18470E+04  0.28927E+04  0.45425E+04  0.71495E+04  0.11272E+05
  0.17796E+05  0.28127E+05  0.44495E+05  0.00000E+00  0.24550E-01  0.49297E-01
  0.74277E-01  0.10723E+00  0.13609E+00  0.15960E+00  0.17789E+00  0.19111E+00
  0.20028E+00  0.20527E+00  0.20591E+00  0.20280E+00  0.18935E+00  0.16073E+00
  0.11840E+00  0.46368E-01  0.67169E-01  0.24061E+00  0.44211E+00  0.10295E+01
  0.18790E+01  0.31763E+01  0.55758E+01  0.96421E+01  0.15812E+02  0.26833E+02
  0.45013E+02  0.75145E+02  0.12201E+03  0.19666E+03  0.30432E+03  0.46403E+03
  0.77489E+03  0.11982E+04  0.18625E+04  0.29071E+04  0.45528E+04  0.71500E+04
  0.11253E+05  0.17742E+05  0.28009E+05  0.44270E+05  0.00000E+00  0.55260E-01
  0.11087E+00  0.16688E+00  0.22280E+00  0.27007E+00  0.30662E+00  0.33439E+00
  0.35368E+00  0.36601E+00  0.37239E+00  0.37202E+00  0.36650E+00  0.34535E+00
  0.30210E+00  0.24095E+00  0.13979E+00  0.15565E-01  0.24731E+00  0.57834E+00
  0.11623E+01  0.23158E+01  0.38041E+01  0.65829E+01  0.11182E+02  0.17977E+02
  0.29947E+02  0.49366E+02  0.81113E+02  0.12983E+03  0.20669E+03  0.31637E+03
  0.47793E+03  0.79265E+03  0.12180E+04  0.18834E+04  0.29275E+04  0.45692E+04
  0.71564E+04  0.11238E+05  0.17688E+05  0.27886E+05  0.44025E+05  0.00000E+00
  0.15412E+00  0.30894E+00  0.46487E+00  0.58503E+00  0.68030E+00  0.75001E+00
  0.79890E+00  0.83076E+00  0.85216E+00  0.86532E+00  0.86794E+00  0.86321E+00
  0.83706E+00  0.78087E+00  0.70262E+00  0.57141E+00  0.37370E+00  0.85075E-01
  0.31792E+00  0.10919E+01  0.51582E+01  0.41091E+01  0.72812E+01  0.12424E+02
  0.19796E+02  0.32654E+02  0.53162E+02  0.86226E+02  0.13618E+03  0.21413E+03
  0.32375E+03  0.48363E+03  0.79711E+03  0.12154E+04  0.18676E+04  0.28880E+04
  0.44888E+04  0.70067E+04  0.10974E+05  0.17234E+05  0.27122E+05  0.42759E+05
  0.00000E+00  0.70102E+00  0.14052E+01  0.21130E+01  0.21193E+01  0.21268E+01
  0.21355E+01  0.21453E+01  0.21555E+01  0.21651E+01  0.21708E+01  0.21723E+01
  0.21678E+01  0.21367E+01  0.20679E+01  0.19744E+01  0.18162E+01  0.15785E+01
  0.12369E+01  0.77407E+00  0.14451E+00  0.16141E+01  0.35883E+01  0.71633E+01
  0.12851E+02  0.20721E+02  0.34377E+02  0.55773E+02  0.89775E+02  0.14018E+03
  0.21788E+03  0.32496E+03  0.47905E+03  0.78553E+03  0.11866E+04  0.18094E+04
  0.27803E+04  0.42991E+04  0.66827E+04  0.10431E+05  0.16337E+05  0.25654E+05
  0.40375E+05  0.00000E+00  0.13363E+01  0.26774E+01  0.40238E+01  0.40332E+01
  0.40444E+01  0.40573E+01  0.40718E+01  0.40866E+01  0.41001E+01  0.41073E+01
  0.41078E+01  0.40989E+01  0.40492E+01  0.39431E+01  0.38025E+01  0.35702E+01
  0.32303E+01  0.27561E+01  0.21367E+01  0.91771E+00  0.97980E+00  0.34213E+01
  0.77800E+01  0.14521E+02  0.23484E+02  0.38818E+02  0.62273E+02  0.98811E+02
  0.15176E+03  0.23211E+03  0.34047E+03  0.49419E+03  0.80279E+03  0.11992E+04
  0.18116E+04  0.27623E+04  0.42444E+04  0.65636E+04  0.10202E+05  0.15925E+05
  0.24940E+05  0.39165E+05  0.00000E+00  0.25482E+01  0.51038E+01  0.76674E+01
  0.76814E+01  0.76980E+01  0.77171E+01  0.77385E+01  0.77598E+01  0.77788E+01
  0.77874E+01  0.77850E+01  0.77678E+01  0.76872E+01  0.75211E+01  0.73056E+01
  0.69574E+01  0.64597E+01  0.57846E+01  0.49328E+01  0.32719E+01  0.75597E+00
  0.23410E+01  0.77905E+01  0.15970E+02  0.26371E+02  0.43905E+02  0.70007E+02
  0.10976E+03  0.16583E+03  0.24937E+03  0.35906E+03  0.51196E+03  0.82309E+03
  0.12133E+04  0.18126E+04  0.27381E+04  0.41748E+04  0.64153E+04  0.99204E+04
  0.15420E+05  0.24068E+05  0.37694E+05  0.00000E+00  0.48612E+01  0.97338E+01
  0.14618E+02  0.14639E+02  0.14664E+02  0.14692E+02  0.14723E+02  0.14754E+02
  0.14780E+02  0.14789E+02  0.14781E+02  0.14748E+02  0.14616E+02  0.14353E+02
  0.14018E+02  0.13486E+02  0.12743E+02  0.11759E+02  0.10556E+02  0.82356E+01
  0.48116E+01  0.77928E+00  0.62126E+01  0.16384E+02  0.28700E+02  0.49146E+02
  0.78673E+02  0.12250E+03  0.18238E+03  0.26971E+03  0.38058E+03  0.53180E+03
  0.84573E+03  0.12275E+04  0.18096E+04  0.27032E+04  0.40834E+04  0.62266E+04
  0.95677E+04  0.14796E+05  0.22997E+05  0.35895E+05  0.00000E+00  0.92745E+01
  0.18567E+02  0.27876E+02  0.27907E+02  0.27944E+02  0.27986E+02  0.28032E+02
  0.28075E+02  0.28111E+02  0.28119E+02  0.28097E+02  0.28036E+02  0.27820E+02
  0.27399E+02  0.26871E+02  0.26048E+02  0.24919E+02  0.23455E+02  0.21715E+02
  0.18395E+02  0.13618E+02  0.82279E+01  0.98043E+00  0.13955E+02  0.28854E+02
  0.53202E+02  0.87195E+02  0.13621E+03  0.20070E+03  0.29239E+03  0.40395E+03
  0.55196E+03  0.86866E+03  0.12385E+04  0.17977E+04  0.26501E+04  0.39586E+04
  0.59803E+04  0.91187E+04  0.14012E+05  0.21667E+05  0.33678E+05  0.00000E+00
  0.17698E+02  0.35424E+02  0.53174E+02  0.53221E+02  0.53275E+02  0.53337E+02
  0.53404E+02  0.53466E+02  0.53514E+02  0.53515E+02  0.53468E+02  0.53357E+02
  0.53001E+02  0.52325E+02  0.51485E+02  0.50197E+02  0.48455E+02  0.46238E+02
  0.43666E+02  0.38815E+02  0.31993E+02  0.24598E+02  0.12153E+02  0.48304E+01
  0.23270E+02  0.52923E+02  0.92796E+02  0.14844E+03  0.21843E+03  0.31498E+03
  0.42611E+03  0.56829E+03  0.88716E+03  0.12396E+04  0.17675E+04  0.25655E+04
  0.37818E+04  0.56496E+04  0.85344E+04  0.13014E+05  0.19996E+05  0.30921E+05
  0.00000E+00  0.33778E+02  0.67601E+02  0.10146E+03  0.10153E+03  0.10161E+03
  0.10170E+03  0.10179E+03  0.10188E+03  0.10194E+03  0.10193E+03  0.10184E+03
  0.10164E+03  0.10105E+03  0.99958E+02  0.98612E+02  0.96578E+02  0.93860E+02
  0.90454E+02  0.86577E+02  0.79354E+02  0.69405E+02  0.59003E+02  0.41754E+02
  0.18940E+02  0.44424E+01  0.41421E+02  0.89141E+02  0.15332E+03  0.22979E+03
  0.33151E+03  0.44002E+03  0.57197E+03  0.89137E+03  0.12180E+04  0.17019E+04
  0.24266E+04  0.35220E+04  0.51922E+04  0.77562E+04  0.11717E+05  0.17866E+05
  0.27452E+05  0.00000E+00  0.64482E+02  0.12903E+03  0.19363E+03  0.19374E+03
  0.19386E+03  0.19399E+03  0.19413E+03  0.19425E+03  0.19433E+03  0.19428E+03
  0.19410E+03  0.19375E+03  0.19278E+03  0.19101E+03  0.18885E+03  0.18561E+03
  0.18133E+03  0.17603E+03  0.17009E+03  0.15917E+03  0.14438E+03  0.12940E+03
  0.10492E+03  0.73486E+02  0.43073E+02  0.42084E+01  0.62567E+02  0.13786E+03
  0.22186E+03  0.32859E+03  0.43057E+03  0.54507E+03  0.86153E+03  0.11490E+04
  0.15700E+04  0.21938E+04  0.31278E+04  0.45401E+04  0.66927E+04  0.99982E+04
  0.15103E+05  0.23029E+05  0.00000E+00  0.12309E+03  0.24630E+03  0.36957E+03
  0.36972E+03  0.36990E+03  0.37009E+03  0.37029E+03  0.37046E+03  0.37055E+03
  0.37044E+03  0.37010E+03  0.36949E+03  0.36789E+03  0.36502E+03  0.36153E+03
  0.35635E+03  0.34957E+03  0.34125E+03  0.33203E+03  0.31528E+03  0.29296E+03
  0.27093E+03  0.23543E+03  0.19106E+03  0.15045E+03  0.88421E+02  0.15381E+02
  0.74585E+02  0.16715E+03  0.27795E+03  0.36669E+03  0.45202E+03  0.75907E+03
  0.98669E+03  0.13159E+04  0.17981E+04  0.25124E+04  0.35823E+04  0.51997E+04
  0.76654E+04  0.11450E+05  0.17297E+05  0.00000E+00  0.23501E+03  0.47020E+03
  0.70547E+03  0.70569E+03  0.70596E+03  0.70624E+03  0.70653E+03  0.70676E+03
  0.70686E+03  0.70661E+03  0.70601E+03  0.70495E+03  0.70231E+03  0.69765E+03
  0.69200E+03  0.68370E+03  0.67289E+03  0.65972E+03  0.64526E+03  0.61929E+03
  0.58513E+03  0.55212E+03  0.49963E+03  0.43559E+03  0.37991E+03  0.29635E+03
  0.20263E+03  0.92927E+02  0.91996E+01  0.12179E+03  0.18613E+03  0.22355E+03
  0.50987E+03  0.64545E+03  0.83901E+03  0.11190E+04  0.15289E+04  0.21364E+04
  0.30461E+04  0.44216E+04  0.65178E+04  0.97365E+04  0.00000E+00  0.44868E+03
  0.89767E+03  0.13467E+04  0.13471E+04  0.13475E+04  0.13479E+04  0.13483E+04
  0.13486E+04  0.13487E+04  0.13482E+04  0.13471E+04  0.13453E+04  0.13410E+04
  0.13334E+04  0.13242E+04  0.13109E+04  0.12936E+04  0.12726E+04  0.12498E+04
  0.12092E+04  0.11563E+04  0.11061E+04  0.10271E+04  0.93284E+03  0.85448E+03
  0.73894E+03  0.61546E+03  0.47866E+03  0.36613E+03  0.25620E+03  0.23444E+03
  0.27467E+03  0.28164E+02  0.34717E+02  0.43949E+02  0.57128E+02  0.76187E+02
  0.10411E+03  0.14547E+03  0.20742E+03  0.30105E+03  0.44380E+03  0.00000E+00
  0.85668E+03  0.17139E+04  0.25711E+04  0.25716E+04  0.25722E+04  0.25728E+04
  0.25734E+04  0.25738E+04  0.25738E+04  0.25729E+04  0.25710E+04  0.25679E+04
  0.25608E+04  0.25485E+04  0.25336E+04  0.25121E+04  0.24844E+04  0.24509E+04
  0.24145E+04  0.23506E+04  0.22680E+04  0.21906E+04  0.20702E+04  0.19288E+04
  0.18158E+04  0.16519E+04  0.14847E+04  0.13097E+04  0.11861E+04  0.10867E+04
  0.11366E+04  0.13013E+04  0.11258E+04  0.13521E+04  0.16667E+04  0.21099E+04
  0.27425E+04  0.36577E+04  0.49979E+04  0.69838E+04  0.99573E+04  0.14453E+05
  0.00000E+00  0.16358E+04  0.32725E+04  0.49091E+04  0.49099E+04  0.49107E+04
  0.49116E+04  0.49124E+04  0.49129E+04  0.49127E+04  0.49111E+04  0.49079E+04
  0.49027E+04  0.48909E+04  0.48710E+04  0.48469E+04  0.48122E+04  0.47676E+04
  0.47140E+04  0.46558E+04  0.45545E+04  0.44248E+04  0.43040E+04  0.41182E+04
  0.39032E+04  0.37363E+04  0.34984E+04  0.32656E+04  0.30355E+04  0.29004E+04
  0.28246E+04  0.29923E+04  0.33546E+04  0.33002E+04  0.38665E+04  0.46437E+04
  0.57243E+04  0.72463E+04  0.94195E+04  0.12562E+05  0.17166E+05  0.23985E+05
  0.34199E+05  0.00000E+00  0.31234E+04  0.62484E+04  0.93731E+04  0.93742E+04
  0.93754E+04  0.93767E+04  0.93778E+04  0.93784E+04  0.93779E+04  0.93750E+04
  0.93695E+04  0.93607E+04  0.93415E+04  0.93091E+04  0.92700E+04  0.92141E+04
  0.91423E+04  0.90562E+04  0.89629E+04  0.88019E+04  0.85968E+04  0.84069E+04
  0.81175E+04  0.77863E+04  0.75351E+04  0.71823E+04  0.68494E+04  0.65374E+04
  0.63904E+04  0.63591E+04  0.67169E+04  0.73908E+04  0.75364E+04  0.86281E+04
  0.10109E+05  0.12141E+05  0.14965E+05  0.18946E+05  0.24627E+05  0.32845E+05
  0.44878E+05  0.62709E+05  0.00000E+00  0.59644E+04  0.11932E+05  0.17898E+05
  0.17900E+05  0.17901E+05  0.17903E+05  0.17905E+05  0.17905E+05  0.17904E+05
  0.17899E+05  0.17890E+05  0.17875E+05  0.17843E+05  0.17791E+05  0.17728E+05
  0.17637E+05  0.17522E+05  0.17383E+05  0.17233E+05  0.16976E+05  0.16651E+05
  0.16350E+05  0.15896E+05  0.15381E+05  0.14996E+05  0.14463E+05  0.13975E+05
  0.13538E+05  0.13378E+05  0.13424E+05  0.14084E+05  0.15246E+05  0.15714E+05
  0.17617E+05  0.20169E+05  0.23629E+05  0.28379E+05  0.34983E+05  0.44286E+05
  0.57568E+05  0.76774E+05  0.10490E+06  0.00000E+00  0.11389E+05  0.22784E+05
  0.34176E+05  0.34178E+05  0.34181E+05  0.34183E+05  0.34185E+05  0.34186E+05
  0.34183E+05  0.34174E+05  0.34159E+05  0.34134E+05  0.34083E+05  0.33998E+05
  0.33895E+05  0.33750E+05  0.33563E+05  0.33341E+05  0.33099E+05  0.32689E+05
  0.32170E+05  0.31692E+05  0.30975E+05  0.30166E+05  0.29569E+05  0.28750E+05
  0.28018E+05  0.27388E+05  0.27211E+05  0.27383E+05  0.28519E+05  0.30442E+05
  0.31423E+05  0.34575E+05  0.38761E+05  0.44375E+05  0.51989E+05  0.62441E+05
  0.76971E+05  0.97441E+05  0.12666E+06  0.16892E+06  0.00000E+00  0.21750E+05
  0.43508E+05  0.65262E+05  0.65265E+05  0.65269E+05  0.65272E+05  0.65275E+05
  0.65275E+05  0.65270E+05  0.65255E+05  0.65229E+05  0.65188E+05  0.65104E+05
  0.64967E+05  0.64801E+05  0.64566E+05  0.64266E+05  0.63907E+05  0.63517E+05
  0.62861E+05  0.62033E+05  0.61270E+05  0.60131E+05  0.58854E+05  0.57917E+05
  0.56644E+05  0.55524E+05  0.54588E+05  0.54384E+05  0.54755E+05  0.56635E+05
  0.59737E+05  0.61519E+05  0.66594E+05  0.73275E+05  0.82146E+05  0.94043E+05
  0.11018E+06  0.13233E+06  0.16312E+06  0.20650E+06  0.26842E+06  0.00000E+00
  0.41532E+05  0.83078E+05  0.12462E+06  0.12462E+06  0.12463E+06  0.12463E+06
  0.12464E+06  0.12463E+06  0.12462E+06  0.12460E+06  0.12455E+06  0.12449E+06
  0.12435E+06  0.12413E+06  0.12386E+06  0.12348E+06  0.12300E+06  0.12242E+06
  0.12179E+06  0.12074E+06  0.11942E+06  0.11820E+06  0.11638E+06  0.11436E+06
  0.11287E+06  0.11087E+06  0.10913E+06  0.10771E+06  0.10745E+06  0.10813E+06
  0.11116E+06  0.11609E+06  0.11911E+06  0.12714E+06  0.13763E+06  0.15143E+06
  0.16977E+06  0.19436E+06  0.22771E+06  0.27349E+06  0.33712E+06  0.42677E+06
  0.00000E+00  0.79309E+05  0.15865E+06  0.23796E+06  0.23797E+06  0.23798E+06
  0.23799E+06  0.23799E+06  0.23799E+06  0.23797E+06  0.23793E+06  0.23785E+06
  0.23774E+06  0.23752E+06  0.23716E+06  0.23673E+06  0.23612E+06  0.23534E+06
  0.23441E+06  0.23340E+06  0.23171E+06  0.22959E+06  0.22763E+06  0.22474E+06
  0.22151E+06  0.21914E+06  0.21598E+06  0.21324E+06  0.21102E+06  0.21067E+06
  0.21180E+06  0.21661E+06  0.22434E+06  0.22926E+06  0.24182E+06  0.25812E+06
  0.27942E+06  0.30745E+06  0.34467E+06  0.39460E+06  0.46231E+06  0.55524E+06
  0.68444E+06  0.00000E+00  0.15145E+06  0.30296E+06  0.45442E+06  0.45443E+06
  0.45445E+06  0.45445E+06  0.45446E+06  0.45445E+06  0.45442E+06  0.45435E+06
  0.45423E+06  0.45404E+06  0.45369E+06  0.45311E+06  0.45241E+06  0.45142E+06
  0.45017E+06  0.44867E+06  0.44704E+06  0.44433E+06  0.44094E+06  0.43779E+06
  0.43317E+06  0.42802E+06  0.42422E+06  0.41918E+06  0.41482E+06  0.41132E+06
  0.41076E+06  0.41255E+06  0.42008E+06  0.43214E+06  0.43995E+06  0.45944E+06
  0.48461E+06  0.51728E+06  0.55995E+06  0.61613E+06  0.69072E+06  0.79078E+06
  0.92646E+06  0.11127E+07  0.00000E+00  0.00000E+00  0.00000E+00  0.00000E+00
  0.00000E+00  0.00000E+00  0.00000E+00  0.00000E+00  0.00000E+00  0.00000E+00
  0.00000E+00  0.00000E+00  0.00000E+00  0.00000E+00  0.00000E+00  0.00000E+00
  0.00000E+00  0.00000E+00  0.00000E+00  0.00000E+00  0.00000E+00  0.00000E+00
  0.00000E+00  0.00000E+00  0.00000E+00  0.00000E+00  0.00000E+00  0.00000E+00
  0.00000E+00  0.00000E+00  0.00000E+00  0.00000E+00  0.00000E+00  0.00000E+00
  0.00000E+00  0.00000E+00  0.00000E+00  0.00000E+00  0.00000E+00  0.00000E+00
  0.00000E+00  0.00000E+00  0.00000E+00  0.00000E+00  0.00000E+00  0.00000E+00
  0.00000E+00  0.00000E+00  0.00000E+00  0.70729E-08  0.12885E-06  0.44016E-06
  0.51621E-06  0.00000E+00  0.00000E+00  0.00000E+00  0.12243E-03  0.30911E-03
  0.70868E-03  0.15705E-02  0.33680E-02  0.70123E-02  0.14088E-01  0.29625E-01
  0.61549E-01  0.12185E+00  0.24445E+00  0.48048E+00  0.89051E+00  0.16750E+01
  0.30735E+01  0.55369E+01  0.95987E+01  0.16338E+02  0.26505E+02  0.42052E+02
  0.72126E+02  0.11445E+03  0.18163E+03  0.28826E+03  0.45749E+03  0.72616E+03
  0.11526E+04  0.18295E+04  0.29039E+04  0.46093E+04  0.00000E+00  0.00000E+00
  0.00000E+00  0.00000E+00  0.00000E+00  0.00000E+00  0.15720E-07  0.28482E-06
  0.96394E-06  0.11172E-05  0.00000E+00  0.00000E+00  0.00000E+00  0.25441E-03
  0.63771E-03  0.14542E-02  0.32054E-02  0.68465E-02  0.14210E-01  0.28473E-01
  0.59750E-01  0.12393E+00  0.24494E+00  0.49085E+00  0.96395E+00  0.17853E+01
  0.33563E+01  0.61557E+01  0.11086E+02  0.19213E+02  0.32694E+02  0.53032E+02
  0.84126E+02  0.14427E+03  0.22892E+03  0.36326E+03  0.57649E+03  0.91487E+03
  0.14521E+04  0.23047E+04  0.36583E+04  0.58064E+04  0.92165E+04  0.00000E+00
  0.00000E+00  0.00000E+00  0.00000E+00  0.00000E+00  0.00000E+00  0.25942E-07
  0.47331E-06  0.15957E-05  0.18327E-05  0.00000E+00  0.00000E+00  0.00000E+00
  0.39989E-03  0.99409E-03  0.22492E-02  0.49309E-02  0.10483E-01  0.21671E-01
  0.43271E-01  0.90586E-01  0.18740E+00  0.37002E+00  0.74050E+00  0.14527E+01
  0.26881E+01  0.50500E+01  0.92570E+01  0.16664E+02  0.28869E+02  0.49113E+02
  0.79646E+02  0.12632E+03  0.21661E+03  0.34365E+03  0.54529E+03  0.86529E+03
  0.13731E+04  0.21793E+04  0.34589E+04  0.54901E+04  0.87137E+04  0.13831E+05
  0.00000E+00  0.00000E+00  0.00000E+00  0.00000E+00  0.00000E+00  0.00000E+00
  0.36312E-07  0.68849E-06  0.23474E-05  0.26902E-05  0.00000E+00  0.00000E+00
  0.00000E+00  0.56347E-03  0.13882E-02  0.31149E-02  0.67803E-02  0.14327E-01
  0.29474E-01  0.58632E-01  0.12233E+00  0.25253E+00  0.49740E+00  0.99374E+00
  0.19468E+01  0.35987E+01  0.67548E+01  0.12374E+02  0.22261E+02  0.38551E+02
  0.65561E+02  0.10629E+03  0.16854E+03  0.28895E+03  0.45837E+03  0.72722E+03
  0.11539E+04  0.18310E+04  0.29058E+04  0.46117E+04  0.73197E+04  0.11617E+05
  0.18439E+05  0.00000E+00  0.00000E+00  0.00000E+00  0.00000E+00  0.00000E+00
  0.00000E+00  0.42979E-07  0.90751E-06  0.32156E-05  0.37197E-05  0.00000E+00
  0.00000E+00  0.00000E+00  0.75256E-03  0.18346E-02  0.40771E-02  0.88031E-02
  0.18469E-01  0.37772E-01  0.74766E-01  0.15540E+00  0.31970E+00  0.62811E+00
  0.12523E+01  0.24493E+01  0.45213E+01  0.84776E+01  0.15516E+02  0.27896E+02
  0.48282E+02  0.82075E+02  0.13302E+03  0.21086E+03  0.36143E+03  0.57324E+03
  0.90934E+03  0.14427E+04  0.22890E+04  0.36326E+04  0.57647E+04  0.91494E+04
  0.14521E+05  0.23047E+05  0.00000E+00  0.00000E+00  0.00000E+00  0.00000E+00
  0.00000E+00  0.00000E+00  0.32917E-07  0.10297E-05  0.40806E-05  0.48977E-05
  0.00000E+00  0.00000E+00  0.00000E+00  0.97551E-03  0.23512E-02  0.51700E-02
  0.11056E-01  0.23002E-01  0.46716E-01  0.91942E-01  0.19017E+00  0.38983E+00
  0.76333E+00  0.15180E+01  0.29629E+01  0.54603E+01  0.10225E+02  0.18694E+02
  0.33580E+02  0.58081E+02  0.98677E+02  0.15985E+03  0.25331E+03  0.43408E+03
  0.68830E+03  0.10917E+04  0.17317E+04  0.27473E+04  0.43595E+04  0.69178E+04
  0.10979E+05  0.17423E+05  0.27653E+05  0.00000E+00  0.00000E+00  0.00000E+00
  0.00000E+00  0.00000E+00  0.00000E+00  0.28594E-07  0.77226E-06  0.45490E-05
  0.60690E-05  0.00000E+00  0.00000E+00  0.00000E+00  0.12425E-02  0.29627E-02
  0.64387E-02  0.13622E-01  0.28076E-01  0.56553E-01  0.11052E+00  0.22733E+00
  0.46372E+00  0.90472E+00  0.17936E+01  0.34919E+01  0.64220E+01  0.12006E+02
  0.21921E+02  0.39337E+02  0.67979E+02  0.11542E+03  0.18686E+03  0.29599E+03
  0.50704E+03  0.80376E+03  0.12745E+04  0.20214E+04  0.32064E+04  0.50874E+04
  0.80722E+04  0.12810E+05  0.20328E+05  0.32262E+05  0.00000E+00  0.00000E+00
  0.00000E+00  0.00000E+00  0.00000E+00  0.00000E+00  0.24434E-06  0.73830E-06
  0.32976E-05  0.65772E-05  0.00000E+00  0.00000E+00  0.00000E+00  0.15616E-02
  0.36924E-02  0.79314E-02  0.16594E-01  0.33848E-01  0.67533E-01  0.13092E+00
  0.26749E+00  0.54274E+00  0.10538E+01  0.20813E+01  0.40396E+01  0.74105E+01
  0.13826E+02  0.25204E+02  0.45169E+02  0.77975E+02  0.13227E+03  0.21401E+03
  0.33880E+03  0.58014E+03  0.91931E+03  0.14573E+04  0.23109E+04  0.36649E+04
  0.58140E+04  0.92240E+04  0.14637E+05  0.23225E+05  0.36857E+05  0.00000E+00
  0.00000E+00  0.00000E+00  0.00000E+00  0.00000E+00  0.00000E+00  0.87102E-06
  0.56884E-05  0.30426E-05  0.47021E-05  0.00000E+00  0.00000E+00  0.00000E+00
  0.19347E-02  0.45630E-02  0.97083E-02  0.20089E-01  0.40523E-01  0.80033E-01
  0.15372E+00  0.31171E+00  0.62828E+00  0.12131E+01  0.23853E+01  0.46125E+01
  0.84354E+01  0.15700E+02  0.28563E+02  0.51106E+02  0.88110E+02  0.14931E+03
  0.24137E+03  0.38183E+03  0.65351E+03  0.10351E+04  0.16403E+04  0.26003E+04
  0.41230E+04  0.65395E+04  0.10374E+05  0.16459E+05  0.26114E+05  0.41440E+05
  0.00000E+00  0.00000E+00  0.00000E+00  0.00000E+00  0.00000E+00  0.00000E+00
  0.26330E-05  0.20270E-04  0.24149E-04  0.46938E-05  0.00000E+00  0.00000E+00
  0.00000E+00  0.23294E-02  0.55620E-02  0.11788E-01  0.24188E-01  0.48296E-01
  0.94368E-01  0.17945E+00  0.36086E+00  0.72217E+00  0.13853E+01  0.27096E+01
  0.52168E+01  0.95053E+01  0.17639E+02  0.32014E+02  0.57171E+02  0.98410E+02
  0.16655E+03  0.26894E+03  0.42508E+03  0.72710E+03  0.11510E+04  0.18232E+04
  0.28891E+04  0.45797E+04  0.72623E+04  0.11518E+05  0.18272E+05  0.28988E+05
  0.45996E+05  0.00000E+00  0.00000E+00  0.00000E+00  0.00000E+00  0.00000E+00
  0.00000E+00  0.70729E-05  0.57461E-04  0.79973E-04  0.31965E-04  0.00000E+00
  0.00000E+00  0.00000E+00  0.26836E-02  0.66614E-02  0.14202E-01  0.29031E-01
  0.57462E-01  0.11113E+00  0.20906E+00  0.41667E+00  0.82696E+00  0.15747E+01
  0.30613E+01  0.58636E+01  0.10636E+02  0.19668E+02  0.35593E+02  0.63412E+02
  0.10894E+03  0.18408E+03  0.29685E+03  0.46866E+03  0.80106E+03  0.12672E+04
  0.20061E+04  0.31776E+04  0.50351E+04  0.79822E+04  0.12657E+05  0.20075E+05
  0.31844E+05  0.50522E+05  0.00000E+00  0.00000E+00  0.00000E+00  0.00000E+00
  0.00000E+00  0.00000E+00  0.17728E-04  0.14685E-03  0.21573E-03  0.10065E-03
  0.00000E+00  0.00000E+00  0.00000E+00  0.28280E-02  0.77282E-02  0.16890E-01
  0.34696E-01  0.68336E-01  0.13092E+00  0.24365E+00  0.48104E+00  0.94628E+00
  0.17863E+01  0.34482E+01  0.65646E+01  0.11844E+02  0.21808E+02  0.39327E+02
  0.69864E+02  0.11973E+03  0.20192E+03  0.32508E+03  0.51252E+03  0.87525E+03
  0.13833E+04  0.21884E+04  0.34644E+04  0.54871E+04  0.86956E+04  0.13784E+05
  0.21859E+05  0.34667E+05  0.54992E+05  0.00000E+00  0.00000E+00  0.00000E+00
  0.00000E+00  0.00000E+00  0.00000E+00  0.45755E-04  0.38269E-03  0.57731E-03
  0.28801E-03  0.00000E+00  0.00000E+00  0.00000E+00  0.19844E-02  0.79049E-02
  0.18924E-01  0.40236E-01  0.79953E-01  0.15284E+00  0.28226E+00  0.55337E+00
  0.10797E+01  0.20202E+01  0.38714E+01  0.73221E+01  0.13131E+02  0.24061E+02
  0.43214E+02  0.76512E+02  0.13075E+03  0.21999E+03  0.35344E+03  0.55626E+03
  0.94897E+03  0.14982E+04  0.23680E+04  0.37460E+04  0.59298E+04  0.93931E+04
  0.14885E+05  0.23597E+05  0.37415E+05  0.59341E+05  0.00000E+00  0.00000E+00
  0.00000E+00  0.00000E+00  0.19206E-03  0.11283E-02  0.21115E-02  0.30614E-02
  0.38819E-02  0.44619E-02  0.45953E-02  0.38345E-02  0.00000E+00  0.00000E+00
  0.52335E-02  0.17474E-01  0.41287E-01  0.85048E-01  0.16407E+00  0.30265E+00
  0.59185E+00  0.11456E+01  0.21171E+01  0.40280E+01  0.75658E+01  0.13476E+02
  0.24561E+02  0.43907E+02  0.77436E+02  0.13188E+03  0.22127E+03  0.35459E+03
  0.55686E+03  0.94889E+03  0.14960E+04  0.23619E+04  0.37330E+04  0.59051E+04
  0.93486E+04  0.14808E+05  0.23466E+05  0.37197E+05  0.58983E+05  0.00000E+00
  0.58458E-04  0.11845E-03  0.18050E-03  0.21491E-02  0.43319E-02  0.64908E-02
  0.84988E-02  0.10183E-01  0.11487E-01  0.12237E-01  0.12241E-01  0.10998E-01
  0.00000E+00  0.13730E-02  0.12429E-01  0.39226E-01  0.88140E-01  0.17516E+00
  0.32527E+00  0.63617E+00  0.12261E+01  0.22375E+01  0.42243E+01  0.78730E+01
  0.13912E+02  0.25194E+02  0.44785E+02  0.78610E+02  0.13332E+03  0.22292E+03
  0.35610E+03  0.55771E+03  0.94894E+03  0.14934E+04  0.23546E+04  0.37173E+04
  0.58751E+04  0.92945E+04  0.14714E+05  0.23307E+05  0.36932E+05  0.58545E+05
  0.00000E+00  0.62124E-03  0.12555E-02  0.19074E-02  0.60389E-02  0.10398E-01
  0.14541E-01  0.18232E-01  0.21274E-01  0.23620E-01  0.25122E-01  0.25608E-01
  0.24755E-01  0.20366E-01  0.00000E+00  0.42254E-02  0.35756E-01  0.92277E-01
  0.19069E+00  0.35710E+00  0.69939E+00  0.13394E+01  0.24122E+01  0.45075E+01
  0.83148E+01  0.14543E+02  0.26115E+02  0.46081E+02  0.80381E+02  0.13559E+03
  0.22569E+03  0.35910E+03  0.56051E+03  0.95174E+03  0.14946E+04  0.23523E+04
  0.37085E+04  0.58546E+04  0.92540E+04  0.14639E+05  0.23176E+05  0.36708E+05
  0.58169E+05  0.00000E+00  0.21867E-02  0.44102E-02  0.66822E-02  0.14403E-01
  0.22059E-01  0.29024E-01  0.35006E-01  0.39717E-01  0.43215E-01  0.45381E-01
  0.46136E-01  0.45108E-01  0.39521E-01  0.26478E-01  0.43718E-02  0.34818E-01
  0.10240E+00  0.21879E+00  0.41059E+00  0.79985E+00  0.15103E+01  0.26777E+01
  0.49308E+01  0.89685E+01  0.15479E+02  0.27483E+02  0.48024E+02  0.83079E+02
  0.13916E+03  0.23027E+03  0.36455E+03  0.56665E+03  0.95936E+03  0.15025E+04
  0.23595E+04  0.37135E+04  0.58543E+04  0.92432E+04  0.14609E+05  0.23112E+05
  0.36586E+05  0.57950E+05  0.00000E+00  0.63423E-02  0.12767E-01  0.19296E-01
  0.33154E-01  0.46243E-01  0.57592E-01  0.66818E-01  0.73792E-01  0.79003E-01
  0.81988E-01  0.82791E-01  0.81192E-01  0.73269E-01  0.55546E-01  0.27322E-01
  0.21294E-01  0.12137E+00  0.25200E+00  0.47691E+00  0.92873E+00  0.17386E+01
  0.30273E+01  0.54875E+01  0.98255E+01  0.16701E+02  0.29265E+02  0.50546E+02
  0.86574E+02  0.14377E+03  0.23621E+03  0.37165E+03  0.57472E+03  0.96949E+03
  0.15132E+04  0.23700E+04  0.37218E+04  0.58571E+04  0.92347E+04  0.14580E+05
  0.23045E+05  0.36454E+05  0.57708E+05  0.00000E+00  0.15943E-01  0.32063E-01
  0.48381E-01  0.72639E-01  0.94312E-01  0.11212E+00  0.12623E+00  0.13662E+00
  0.14386E+00  0.14770E+00  0.14878E+00  0.14613E+00  0.13421E+00  0.10887E+00
  0.70170E-01  0.24591E-02  0.10579E+00  0.10567E+01  0.56131E+00  0.10975E+01
  0.20354E+01  0.34891E+01  0.62228E+01  0.10954E+02  0.18303E+02  0.31591E+02
  0.53828E+02  0.91110E+02  0.14975E+03  0.24391E+03  0.38089E+03  0.58528E+03
  0.98285E+03  0.15277E+04  0.23845E+04  0.37345E+04  0.58644E+04  0.92300E+04
  0.14552E+05  0.22975E+05  0.36311E+05  0.57442E+05  0.00000E+00  0.36428E-01
  0.73149E-01  0.11022E+00  0.15121E+00  0.18656E+00  0.21448E+00  0.23611E+00
  0.25135E+00  0.26172E+00  0.26660E+00  0.26742E+00  0.26283E+00  0.24492E+00
  0.20790E+00  0.15316E+00  0.59981E-01  0.86890E-01  0.31123E+00  0.54250E+00
  0.13212E+01  0.24258E+01  0.41006E+01  0.71984E+01  0.12448E+02  0.20413E+02
  0.34641E+02  0.58112E+02  0.97012E+02  0.15752E+03  0.25388E+03  0.39288E+03
  0.59906E+03  0.10004E+04  0.15469E+04  0.24045E+04  0.37531E+04  0.58776E+04
  0.92307E+04  0.14527E+05  0.22905E+05  0.36160E+05  0.57152E+05  0.00000E+00
  0.79067E-01  0.15868E+00  0.23887E+00  0.30782E+00  0.36420E+00  0.40805E+00
  0.43993E+00  0.46130E+00  0.47633E+00  0.48265E+00  0.48220E+00  0.47406E+00
  0.44584E+00  0.39080E+00  0.31165E+00  0.18047E+00  0.20135E-01  0.31928E+00
  0.74814E+00  0.15125E+01  0.29721E+01  0.49111E+01  0.84985E+01  0.14436E+02
  0.23209E+02  0.38661E+02  0.63731E+02  0.10472E+03  0.16762E+03  0.26684E+03
  0.40844E+03  0.61700E+03  0.10233E+04  0.15724E+04  0.24315E+04  0.37794E+04
  0.58988E+04  0.92389E+04  0.14509E+05  0.22835E+05  0.36000E+05  0.56836E+05
  0.00000E+00  0.21352E+00  0.42802E+00  0.64404E+00  0.78801E+00  0.89785E+00
  0.98047E+00  0.10377E+01  0.10768E+01  0.11023E+01  0.11171E+01  0.11205E+01
  0.11144E+01  0.10806E+01  0.10081E+01  0.90708E+00  0.73769E+00  0.48245E+00
  0.11004E+00  0.41043E+00  0.14097E+01  0.31945E+01  0.53048E+01  0.94000E+01
  0.16039E+02  0.25556E+02  0.42156E+02  0.68632E+02  0.11132E+03  0.17580E+03
  0.27644E+03  0.41796E+03  0.62436E+03  0.10291E+04  0.15691E+04  0.24111E+04
  0.37284E+04  0.57950E+04  0.90457E+04  0.14167E+05  0.22249E+05  0.35014E+05
  0.55202E+05  0.00000E+00  0.90502E+00  0.18141E+01  0.27279E+01  0.27360E+01
  0.27456E+01  0.27569E+01  0.27696E+01  0.27827E+01  0.27951E+01  0.28024E+01
  0.28044E+01  0.27986E+01  0.27584E+01  0.26697E+01  0.25490E+01  0.23448E+01
  0.20379E+01  0.15969E+01  0.99932E+00  0.18656E+00  0.20838E+01  0.46324E+01
  0.92477E+01  0.16590E+02  0.26751E+02  0.44381E+02  0.72003E+02  0.11590E+03
  0.18097E+03  0.28128E+03  0.41953E+03  0.61845E+03  0.10141E+04  0.15319E+04
  0.23359E+04  0.35893E+04  0.55501E+04  0.86273E+04  0.13466E+05  0.21091E+05
  0.33119E+05  0.52124E+05  0.00000E+00  0.17251E+01  0.34565E+01  0.51947E+01
  0.52068E+01  0.52213E+01  0.52379E+01  0.52567E+01  0.52758E+01  0.52932E+01
  0.53025E+01  0.53031E+01  0.52917E+01  0.52275E+01  0.50905E+01  0.49090E+01
  0.46091E+01  0.41702E+01  0.35581E+01  0.27585E+01  0.11848E+01  0.12649E+01
  0.44169E+01  0.10044E+02  0.18747E+02  0.30318E+02  0.50114E+02  0.80394E+02
  0.12756E+03  0.19591E+03  0.29965E+03  0.43954E+03  0.63799E+03  0.10364E+04
  0.15482E+04  0.23388E+04  0.35661E+04  0.54794E+04  0.84736E+04  0.13171E+05
  0.20559E+05  0.32197E+05  0.50562E+05  0.00000E+00  0.32897E+01  0.65890E+01
  0.98985E+01  0.99166E+01  0.99381E+01  0.99628E+01  0.99904E+01  0.10018E+02
  0.10042E+02  0.10053E+02  0.10050E+02  0.10028E+02  0.99242E+01  0.97097E+01
  0.94315E+01  0.89819E+01  0.83395E+01  0.74679E+01  0.63683E+01  0.42240E+01
  0.97596E+00  0.30222E+01  0.10057E+02  0.20617E+02  0.34045E+02  0.56681E+02
  0.90379E+02  0.14170E+03  0.21408E+03  0.32194E+03  0.46354E+03  0.66093E+03
  0.10626E+04  0.15664E+04  0.23400E+04  0.35349E+04  0.53897E+04  0.82822E+04
  0.12807E+05  0.19908E+05  0.31072E+05  0.48663E+05  0.00000E+00  0.62757E+01
  0.12566E+02  0.18872E+02  0.18899E+02  0.18931E+02  0.18967E+02  0.19008E+02
  0.19047E+02  0.19081E+02  0.19093E+02  0.19082E+02  0.19039E+02  0.18870E+02
  0.18530E+02  0.18097E+02  0.17411E+02  0.16451E+02  0.15181E+02  0.13628E+02
  0.10632E+02  0.62117E+01  0.10061E+01  0.80204E+01  0.21152E+02  0.37051E+02
  0.63447E+02  0.10157E+03  0.15815E+03  0.23546E+03  0.34819E+03  0.49133E+03
  0.68655E+03  0.10918E+04  0.15847E+04  0.23362E+04  0.34898E+04  0.52716E+04
  0.80385E+04  0.12352E+05  0.19101E+05  0.29689E+05  0.46340E+05  0.00000E+00
  0.11973E+02  0.23970E+02  0.35988E+02  0.36028E+02  0.36075E+02  0.36129E+02
  0.36189E+02  0.36245E+02  0.36291E+02  0.36301E+02  0.36273E+02  0.36195E+02
  0.35915E+02  0.35372E+02  0.34690E+02  0.33628E+02  0.32170E+02  0.30280E+02
  0.28034E+02  0.23748E+02  0.17581E+02  0.10622E+02  0.12657E+01  0.18015E+02
  0.37250E+02  0.68684E+02  0.11257E+03  0.17584E+03  0.25910E+03  0.37747E+03
  0.52149E+03  0.71257E+03  0.11214E+04  0.15989E+04  0.23209E+04  0.34213E+04
  0.51106E+04  0.77205E+04  0.11772E+05  0.18090E+05  0.27972E+05  0.43479E+05
  0.00000E+00  0.22848E+02  0.45732E+02  0.68647E+02  0.68708E+02  0.68778E+02
  0.68858E+02  0.68944E+02  0.69024E+02  0.69086E+02  0.69088E+02  0.69027E+02
  0.68884E+02  0.68424E+02  0.67551E+02  0.66466E+02  0.64804E+02  0.62555E+02
  0.59693E+02  0.56373E+02  0.50110E+02  0.41303E+02  0.31756E+02  0.15689E+02
  0.62360E+01  0.30042E+02  0.68324E+02  0.11980E+03  0.19163E+03  0.28199E+03
  0.40664E+03  0.55010E+03  0.73366E+03  0.11453E+04  0.16004E+04  0.22818E+04
  0.33120E+04  0.48823E+04  0.72936E+04  0.11018E+05  0.16801E+05  0.25815E+05
  0.39919E+05  0.00000E+00  0.43608E+02  0.87272E+02  0.13098E+03  0.13107E+03
  0.13117E+03  0.13129E+03  0.13142E+03  0.13153E+03  0.13161E+03  0.13159E+03
  0.13147E+03  0.13121E+03  0.13045E+03  0.12904E+03  0.12731E+03  0.12468E+03
  0.12117E+03  0.11678E+03  0.11177E+03  0.10245E+03  0.89601E+02  0.76173E+02
  0.53905E+02  0.24451E+02  0.57351E+01  0.53475E+02  0.11508E+03  0.19793E+03
  0.29666E+03  0.42797E+03  0.56806E+03  0.73841E+03  0.11507E+04  0.15724E+04
  0.21971E+04  0.31327E+04  0.45469E+04  0.67031E+04  0.10013E+05  0.15127E+05
  0.23064E+05  0.35441E+05  0.00000E+00  0.83246E+02  0.16658E+03  0.24998E+03
  0.25011E+03  0.25027E+03  0.25044E+03  0.25062E+03  0.25078E+03  0.25088E+03
  0.25082E+03  0.25058E+03  0.25013E+03  0.24888E+03  0.24659E+03  0.24380E+03
  0.23962E+03  0.23410E+03  0.22726E+03  0.21959E+03  0.20548E+03  0.18640E+03
  0.16706E+03  0.13545E+03  0.94870E+02  0.55606E+02  0.54331E+01  0.80774E+02
  0.17798E+03  0.28642E+03  0.42421E+03  0.55587E+03  0.70368E+03  0.11122E+04
  0.14833E+04  0.20268E+04  0.28321E+04  0.40379E+04  0.58612E+04  0.86403E+04
  0.12908E+05  0.19498E+05  0.29730E+05  0.00000E+00  0.15891E+03  0.31797E+03
  0.47711E+03  0.47731E+03  0.47753E+03  0.47779E+03  0.47805E+03  0.47827E+03
  0.47838E+03  0.47823E+03  0.47780E+03  0.47701E+03  0.47494E+03  0.47124E+03
  0.46673E+03  0.46005E+03  0.45130E+03  0.44055E+03  0.42865E+03  0.40702E+03
  0.37820E+03  0.34977E+03  0.30394E+03  0.24666E+03  0.19423E+03  0.11415E+03
  0.19857E+02  0.96289E+02  0.21579E+03  0.35883E+03  0.47340E+03  0.58356E+03
  0.97995E+03  0.12738E+04  0.16988E+04  0.23213E+04  0.32435E+04  0.46248E+04
  0.67128E+04  0.98961E+04  0.14782E+05  0.22331E+05  0.00000E+00  0.30339E+03
  0.60702E+03  0.91075E+03  0.91105E+03  0.91139E+03  0.91175E+03  0.91213E+03
  0.91242E+03  0.91255E+03  0.91223E+03  0.91146E+03  0.91009E+03  0.90668E+03
  0.90067E+03  0.89336E+03  0.88265E+03  0.86869E+03  0.85169E+03  0.83303E+03
  0.79949E+03  0.75539E+03  0.71279E+03  0.64502E+03  0.56235E+03  0.49046E+03
  0.38259E+03  0.26159E+03  0.11997E+03  0.11877E+02  0.15723E+03  0.24030E+03
  0.28860E+03  0.65824E+03  0.83327E+03  0.10832E+04  0.14446E+04  0.19738E+04
  0.27581E+04  0.39325E+04  0.57082E+04  0.84145E+04  0.12570E+05  0.00000E+00
  0.57925E+03  0.11589E+04  0.17386E+04  0.17391E+04  0.17396E+04  0.17401E+04
  0.17406E+04  0.17410E+04  0.17411E+04  0.17405E+04  0.17391E+04  0.17368E+04
  0.17312E+04  0.17214E+04  0.17096E+04  0.16924E+04  0.16700E+04  0.16430E+04
  0.16135E+04  0.15610E+04  0.14928E+04  0.14279E+04  0.13260E+04  0.12043E+04
  0.11031E+04  0.95397E+03  0.79456E+03  0.61794E+03  0.47268E+03  0.33075E+03
  0.30266E+03  0.35460E+03  0.36359E+02  0.44820E+02  0.56738E+02  0.73753E+02
  0.98358E+02  0.13440E+03  0.18780E+03  0.26778E+03  0.38866E+03  0.57295E+03
  0.00000E+00  0.11060E+04  0.22126E+04  0.33193E+04  0.33200E+04  0.33207E+04
  0.33215E+04  0.33222E+04  0.33227E+04  0.33228E+04  0.33216E+04  0.33192E+04
  0.33152E+04  0.33060E+04  0.32901E+04  0.32709E+04  0.32432E+04  0.32073E+04
  0.31641E+04  0.31171E+04  0.30346E+04  0.29280E+04  0.28280E+04  0.26726E+04
  0.24901E+04  0.23442E+04  0.21326E+04  0.19167E+04  0.16908E+04  0.15313E+04
  0.14029E+04  0.14674E+04  0.16799E+04  0.14534E+04  0.17455E+04  0.21517E+04
  0.27238E+04  0.35405E+04  0.47220E+04  0.64522E+04  0.90161E+04  0.12855E+05
  0.18658E+05  0.00000E+00  0.21118E+04  0.42247E+04  0.63377E+04  0.63386E+04
  0.63397E+04  0.63408E+04  0.63419E+04  0.63425E+04  0.63423E+04  0.63402E+04
  0.63360E+04  0.63293E+04  0.63141E+04  0.62884E+04  0.62573E+04  0.62125E+04
  0.61550E+04  0.60857E+04  0.60106E+04  0.58798E+04  0.57123E+04  0.55564E+04
  0.53166E+04  0.50390E+04  0.48236E+04  0.45165E+04  0.42159E+04  0.39188E+04
  0.37444E+04  0.36465E+04  0.38631E+04  0.43308E+04  0.42606E+04  0.49916E+04
  0.59950E+04  0.73900E+04  0.93549E+04  0.12161E+05  0.16218E+05  0.22161E+05
  0.30965E+05  0.44150E+05  0.00000E+00  0.40323E+04  0.80666E+04  0.12101E+05
  0.12102E+05  0.12104E+05  0.12105E+05  0.12107E+05  0.12107E+05  0.12107E+05
  0.12103E+05  0.12096E+05  0.12085E+05  0.12060E+05  0.12018E+05  0.11968E+05
  0.11895E+05  0.11803E+05  0.11691E+05  0.11571E+05  0.11363E+05  0.11098E+05
  0.10853E+05  0.10480E+05  0.10052E+05  0.97278E+04  0.92723E+04  0.88425E+04
  0.84397E+04  0.82500E+04  0.82095E+04  0.86715E+04  0.95415E+04  0.97295E+04
  0.11139E+05  0.13050E+05  0.15674E+05  0.19320E+05  0.24459E+05  0.31793E+05
  0.42403E+05  0.57938E+05  0.80957E+05  0.00000E+00  0.77001E+04  0.15404E+05
  0.23106E+05  0.23108E+05  0.23110E+05  0.23113E+05  0.23115E+05  0.23116E+05
  0.23114E+05  0.23107E+05  0.23095E+05  0.23076E+05  0.23036E+05  0.22968E+05
  0.22886E+05  0.22770E+05  0.22621E+05  0.22442E+05  0.22248E+05  0.21917E+05
  0.21496E+05  0.21108E+05  0.20522E+05  0.19856E+05  0.19360E+05  0.18671E+05
  0.18041E+05  0.17478E+05  0.17271E+05  0.17330E+05  0.18182E+05  0.19682E+05
  0.20287E+05  0.22743E+05  0.26038E+05  0.30505E+05  0.36637E+05  0.45163E+05
  0.57173E+05  0.74319E+05  0.99115E+05  0.13543E+06  0.00000E+00  0.14704E+05
  0.29413E+05  0.44121E+05  0.44124E+05  0.44127E+05  0.44130E+05  0.44133E+05
  0.44134E+05  0.44131E+05  0.44119E+05  0.44099E+05  0.44067E+05  0.44001E+05
  0.43891E+05  0.43759E+05  0.43571E+05  0.43330E+05  0.43042E+05  0.42731E+05
  0.42201E+05  0.41531E+05  0.40914E+05  0.39988E+05  0.38944E+05  0.38173E+05
  0.37117E+05  0.36171E+05  0.35358E+05  0.35129E+05  0.35351E+05  0.36818E+05
  0.39300E+05  0.40566E+05  0.44636E+05  0.50040E+05  0.57288E+05  0.67117E+05
  0.80611E+05  0.99369E+05  0.12580E+06  0.16351E+06  0.21807E+06  0.00000E+00
  0.28079E+05  0.56168E+05  0.84253E+05  0.84257E+05  0.84262E+05  0.84266E+05
  0.84270E+05  0.84270E+05  0.84264E+05  0.84244E+05  0.84210E+05  0.84157E+05
  0.84049E+05  0.83872E+05  0.83658E+05  0.83354E+05  0.82967E+05  0.82503E+05
  0.82001E+05  0.81153E+05  0.80084E+05  0.79099E+05  0.77629E+05  0.75981E+05
  0.74770E+05  0.73127E+05  0.71681E+05  0.70473E+05  0.70210E+05  0.70689E+05
  0.73115E+05  0.77120E+05  0.79421E+05  0.85973E+05  0.94597E+05  0.10605E+06
  0.12141E+06  0.14224E+06  0.17084E+06  0.21059E+06  0.26659E+06  0.34653E+06
  0.00000E+00  0.53617E+05  0.10725E+06  0.16088E+06  0.16089E+06  0.16089E+06
  0.16090E+06  0.16090E+06  0.16090E+06  0.16089E+06  0.16086E+06  0.16080E+06
  0.16071E+06  0.16054E+06  0.16025E+06  0.15990E+06  0.15941E+06  0.15879E+06
  0.15804E+06  0.15723E+06  0.15588E+06  0.15417E+06  0.15259E+06  0.15025E+06
  0.14764E+06  0.14572E+06  0.14314E+06  0.14089E+06  0.13905E+06  0.13872E+06
