  0.00000E+00  0.00000E+00  0.00000E+00  0.00000E+00  0.00000E+00  0.00000E+00
  0.00000E+00  0.00000E+00  0.00000E+00  0.00000E+00  0.30311E-06  0.27270E-04
  0.13373E-03  0.49476E-03  0.16094E-02  0.45559E-02  0.12463E-01  0.32154E-01
  0.62850E-01  0.12047E+00  0.24541E+00  0.50018E+00  0.97636E+00  0.19855E+01
  0.40081E+01  0.73465E+01  0.13605E+02  0.24653E+02  0.43969E+02  0.75608E+02
  0.12786E+03  0.20634E+03  0.32599E+03  0.59931E+03  0.94846E+03  0.15020E+04
  0.23797E+04  0.37716E+04  0.59802E+04  0.94839E+04  0.15044E+05  0.23865E+05
  0.37866E+05  0.00000E+00  0.00000E+00  0.00000E+00  0.00000E+00  0.00000E+00
  0.00000E+00  0.00000E+00  0.00000E+00  0.00000E+00  0.00000E+00  0.19863E-06
  0.28988E-04  0.15749E-03  0.60672E-03  0.19793E-02  0.55375E-02  0.14891E-01
  0.37712E-01  0.72256E-01  0.13590E+00  0.27226E+00  0.54671E+00  0.10528E+01
  0.21149E+01  0.42230E+01  0.77187E+01  0.14284E+02  0.25769E+02  0.45795E+02
  0.78520E+02  0.13247E+03  0.21338E+03  0.33658E+03  0.60143E+03  0.95086E+03
  0.15046E+04  0.23823E+04  0.37739E+04  0.59814E+04  0.94828E+04  0.15038E+05
  0.23852E+05  0.37838E+05  0.00000E+00  0.00000E+00  0.00000E+00  0.00000E+00
  0.00000E+00  0.00000E+00  0.00000E+00  0.00000E+00  0.00000E+00  0.00000E+00
  0.62870E-07  0.29377E-04  0.19167E-03  0.78118E-03  0.25601E-02  0.70716E-02
  0.18646E-01  0.46205E-01  0.86433E-01  0.15886E+00  0.31171E+00  0.61427E+00
  0.11626E+01  0.22992E+01  0.45262E+01  0.82414E+01  0.15232E+02  0.27319E+02
  0.48319E+02  0.82528E+02  0.13880E+03  0.22300E+03  0.35102E+03  0.60458E+03
  0.95458E+03  0.15089E+04  0.23871E+04  0.37790E+04  0.59863E+04  0.94865E+04
  0.15039E+05  0.23847E+05  0.37822E+05  0.00000E+00  0.00000E+00  0.00000E+00
  0.00000E+00  0.00000E+00  0.00000E+00  0.00000E+00  0.53923E-05  0.50509E-05
  0.42782E-05  0.32377E-05  0.73552E-05  0.18655E-03  0.97676E-03  0.35085E-02
  0.99467E-02  0.26304E-01  0.61034E-01  0.11103E+00  0.19811E+00  0.37767E+00
  0.72255E+00  0.13269E+01  0.25466E+01  0.48637E+01  0.87003E+01  0.15871E+02
  0.28254E+02  0.49670E+02  0.84411E+02  0.14139E+03  0.22640E+03  0.35540E+03
  0.60853E+03  0.95914E+03  0.15140E+04  0.23925E+04  0.37842E+04  0.59903E+04
  0.94875E+04  0.15034E+05  0.23830E+05  0.37785E+05  0.00000E+00  0.00000E+00
  0.00000E+00  0.00000E+00  0.00000E+00  0.00000E+00  0.00000E+00  0.28207E-04
  0.26969E-04  0.24205E-04  0.18563E-04  0.45626E-04  0.14104E-03  0.12354E-02
  0.50451E-02  0.14809E-01  0.39377E-01  0.85398E-01  0.15076E+00  0.26027E+00
  0.48002E+00  0.88704E+00  0.15714E+01  0.29069E+01  0.53443E+01  0.93459E+01
  0.16762E+02  0.29555E+02  0.51546E+02  0.87026E+02  0.14499E+03  0.23115E+03
  0.36156E+03  0.61422E+03  0.96587E+03  0.15218E+04  0.24013E+04  0.37936E+04
  0.59996E+04  0.94952E+04  0.15037E+05  0.23824E+05  0.37762E+05  0.17173E-05
  0.18763E-05  0.20778E-05  0.23312E-05  0.29507E-05  0.43438E-05  0.75781E-04
  0.14651E-02  0.27404E-02  0.30590E-02  0.25229E-02  0.17336E-03  0.00000E+00
  0.36794E-02  0.11671E-01  0.26845E-01  0.58103E-01  0.11368E+00  0.19571E+00
  0.32847E+00  0.58912E+00  0.10587E+01  0.18250E+01  0.32914E+01  0.59092E+01
  0.10141E+02  0.17906E+02  0.31187E+02  0.53839E+02  0.90128E+02  0.14912E+03
  0.23636E+03  0.36798E+03  0.62224E+03  0.97552E+03  0.15333E+04  0.24147E+04
  0.38088E+04  0.60162E+04  0.95120E+04  0.15052E+05  0.23833E+05  0.37756E+05
  0.87290E-04  0.95238E-04  0.10529E-03  0.11793E-03  0.14906E-03  0.21922E-03
  0.56451E-03  0.35304E-02  0.64054E-02  0.73007E-02  0.65924E-02  0.15883E-02
  0.21274E-02  0.29914E-02  0.14717E-01  0.36003E-01  0.78411E-01  0.15158E+00
  0.25627E+00  0.41984E+00  0.73430E+00  0.12852E+01  0.21575E+01  0.37970E+01
  0.66652E+01  0.11208E+02  0.19446E+02  0.33362E+02  0.56862E+02  0.94171E+02
  0.15443E+03  0.24297E+03  0.37596E+03  0.63276E+03  0.98806E+03  0.15480E+04
  0.24317E+04  0.38277E+04  0.60360E+04  0.95309E+04  0.15066E+05  0.23835E+05
  0.37735E+05  0.42555E-03  0.46378E-03  0.51203E-03  0.57267E-03  0.72288E-03
  0.10617E-02  0.23240E-02  0.82483E-02  0.14345E-01  0.16495E-01  0.15872E-01
  0.72834E-02  0.59208E-02  0.00000E+00  0.18062E-01  0.49290E-01  0.10919E+00
  0.20944E+00  0.34883E+00  0.55862E+00  0.95284E+00  0.16224E+01  0.26465E+01
  0.45318E+01  0.77519E+01  0.12726E+02  0.21620E+02  0.36410E+02  0.61078E+02
  0.99792E+02  0.16180E+03  0.25215E+03  0.38711E+03  0.64752E+03  0.10059E+04
  0.15693E+04  0.24568E+04  0.38567E+04  0.60686E+04  0.95657E+04  0.15100E+05
  0.23863E+05  0.37745E+05  0.16237E-02  0.17681E-02  0.19502E-02  0.21790E-02
  0.27482E-02  0.40338E-02  0.83079E-02  0.20072E-01  0.33240E-01  0.38484E-01
  0.39414E-01  0.28375E-01  0.12581E-01  0.11709E-01  0.17007E-01  0.64291E-01
  0.15133E+00  0.29299E+00  0.48582E+00  0.76519E+00  0.12784E+01  0.21219E+01
  0.33636E+01  0.55980E+01  0.93116E+01  0.14882E+02  0.24674E+02  0.40654E+02
  0.66900E+02  0.10750E+03  0.17184E+03  0.26459E+03  0.40215E+03  0.66737E+03
  0.10297E+04  0.15977E+04  0.24902E+04  0.38953E+04  0.61119E+04  0.96118E+04
  0.15145E+05  0.23899E+05  0.37758E+05  0.51261E-02  0.55146E-02  0.60470E-02
  0.68642E-02  0.94571E-02  0.15146E-01  0.27844E-01  0.51134E-01  0.74803E-01
  0.86628E-01  0.91987E-01  0.83042E-01  0.41480E-01  0.39956E-01  0.56307E-02
  0.79094E-01  0.20978E+00  0.42012E+00  0.69826E+00  0.10863E+01  0.17828E+01
  0.28895E+01  0.44526E+01  0.71973E+01  0.11621E+02  0.18033E+02  0.29086E+02
  0.46721E+02  0.75149E+02  0.11834E+03  0.18590E+03  0.28197E+03  0.42315E+03
  0.69510E+03  0.10632E+04  0.16381E+04  0.25384E+04  0.39522E+04  0.61779E+04
  0.96863E+04  0.15226E+05  0.23979E+05  0.37827E+05  0.25717E-01  0.27218E-01
  0.29607E-01  0.34333E-01  0.52592E-01  0.93455E-01  0.15796E+00  0.24938E+00
  0.31218E+00  0.35830E+00  0.38512E+00  0.37774E+00  0.33244E+00  0.22323E+00
  0.49850E-01  0.88765E-01  0.41810E+00  0.90948E+00  0.15427E+01  0.23690E+01
  0.37894E+01  0.59037E+01  0.86512E+01  0.13237E+02  0.20149E+02  0.29411E+02
  0.44673E+02  0.67725E+02  0.10319E+03  0.15461E+03  0.23233E+03  0.33886E+03
  0.49158E+03  0.78511E+03  0.11723E+04  0.17704E+04  0.26987E+04  0.41457E+04
  0.64098E+04  0.99616E+04  0.15547E+05  0.24346E+05  0.38230E+05  0.91495E-01
  0.98256E-01  0.10684E+00  0.11786E+00  0.14199E+00  0.24003E+00  0.37823E+00
  0.59215E+00  0.74566E+00  0.84999E+00  0.91628E+00  0.91982E+00  0.85683E+00
  0.67414E+00  0.32374E+00  0.30104E-01  0.51084E+00  0.14104E+01  0.25113E+01
  0.39006E+01  0.62359E+01  0.95913E+01  0.13744E+02  0.20472E+02  0.30195E+02
  0.42544E+02  0.62292E+02  0.90964E+02  0.13357E+03  0.19315E+03  0.28077E+03
  0.39722E+03  0.56079E+03  0.87511E+03  0.12803E+04  0.19004E+04  0.28553E+04
  0.43340E+04  0.66353E+04  0.10229E+05  0.15862E+05  0.24707E+05  0.38633E+05
  0.24087E+00  0.26215E+00  0.28830E+00  0.31894E+00  0.45889E+00  0.62331E+00
  0.89256E+00  0.13806E+01  0.17615E+01  0.19970E+01  0.21248E+01  0.21819E+01
  0.20596E+01  0.17382E+01  0.11186E+01  0.13563E+00  0.52474E+00  0.21570E+01
  0.41378E+01  0.65696E+01  0.10579E+02  0.16165E+02  0.22777E+02  0.33197E+02
  0.47648E+02  0.65016E+02  0.91946E+02  0.12940E+03  0.18293E+03  0.25469E+03
  0.35687E+03  0.48761E+03  0.66664E+03  0.10113E+04  0.14425E+04  0.20946E+04
  0.30888E+04  0.46152E+04  0.69738E+04  0.10636E+05  0.16346E+05  0.25279E+05
  0.39297E+05  0.60421E+00  0.62163E+00  0.65523E+00  0.73788E+00  0.10824E+01
  0.14300E+01  0.19967E+01  0.30668E+01  0.39706E+01  0.44480E+01  0.47083E+01
  0.48617E+01  0.46214E+01  0.40158E+01  0.27645E+01  0.52572E+00  0.36957E+00
  0.33343E+01  0.69975E+01  0.11398E+02  0.18537E+02  0.28227E+02  0.39266E+02
  0.56235E+02  0.78889E+02  0.10468E+03  0.14347E+03  0.19504E+03  0.26573E+03
  0.35604E+03  0.48001E+03  0.63146E+03  0.83263E+03  0.12220E+04  0.16908E+04
  0.23898E+04  0.34420E+04  0.50401E+04  0.74868E+04  0.11256E+05  0.17095E+05
  0.26182E+05  0.40378E+05  0.12896E+01  0.13267E+01  0.13982E+01  0.15744E+01
  0.23092E+01  0.30504E+01  0.42590E+01  0.65422E+01  0.84732E+01  0.95007E+01
  0.10077E+02  0.10444E+02  0.99907E+01  0.88154E+01  0.63136E+01  0.13586E+01
  0.23766E+00  0.52328E+01  0.12143E+02  0.20308E+02  0.33379E+02  0.50757E+02
  0.69938E+02  0.98801E+02  0.13606E+03  0.17637E+03  0.23530E+03  0.31019E+03
  0.40850E+03  0.52766E+03  0.68468E+03  0.86622E+03  0.10989E+04  0.15545E+04
  0.20772E+04  0.28436E+04  0.39800E+04  0.56830E+04  0.82599E+04  0.12190E+05
  0.18228E+05  0.27557E+05  0.42046E+05  0.26413E+01  0.27169E+01  0.28631E+01
  0.32234E+01  0.47273E+01  0.62436E+01  0.87161E+01  0.13387E+02  0.17338E+02
  0.19443E+02  0.20634E+02  0.21410E+02  0.20527E+02  0.18218E+02  0.13248E+02
  0.29780E+01  0.13845E+01  0.89946E+01  0.22219E+02  0.37657E+02  0.62113E+02
  0.94104E+02  0.12854E+03  0.17946E+03  0.24335E+03  0.30944E+03  0.40356E+03
  0.51817E+03  0.66226E+03  0.82746E+03  0.10358E+04  0.12616E+04  0.15391E+04
  0.20943E+04  0.26943E+04  0.35578E+04  0.48162E+04  0.66722E+04  0.94411E+04
  0.13612E+05  0.19950E+05  0.29653E+05  0.44609E+05  0.54976E+01  0.56547E+01
  0.59586E+01  0.67080E+01  0.98374E+01  0.12993E+02  0.18138E+02  0.27861E+02
  0.36094E+02  0.40502E+02  0.43041E+02  0.44762E+02  0.43082E+02  0.38574E+02
  0.28644E+02  0.67944E+01  0.54021E+01  0.14214E+02  0.39742E+02  0.69272E+02
  0.11569E+03  0.17568E+03  0.23900E+03  0.33134E+03  0.44457E+03  0.55729E+03
  0.71425E+03  0.89799E+03  0.11197E+04  0.13599E+04  0.16490E+04  0.19396E+04
  0.22799E+04  0.29854E+04  0.36932E+04  0.46921E+04  0.61207E+04  0.81902E+04
  0.11227E+05  0.15732E+05  0.22489E+05  0.32714E+05  0.48318E+05  0.11039E+02
  0.11354E+02  0.11963E+02  0.13467E+02  0.19748E+02  0.26080E+02  0.36405E+02
  0.55915E+02  0.72433E+02  0.81279E+02  0.86388E+02  0.89877E+02  0.86571E+02
  0.77681E+02  0.58006E+02  0.13958E+02  0.12337E+02  0.25629E+02  0.75266E+02
  0.13231E+03  0.22146E+03  0.33561E+03  0.45436E+03  0.62568E+03  0.83198E+03
  0.10310E+04  0.13030E+04  0.16107E+04  0.19684E+04  0.23350E+04  0.27559E+04
  0.31441E+04  0.35732E+04  0.45128E+04  0.53739E+04  0.65659E+04  0.82375E+04
  0.10613E+05  0.14034E+05  0.19024E+05  0.26390E+05  0.37380E+05  0.53945E+05
  0.22532E+02  0.23174E+02  0.24418E+02  0.27486E+02  0.40305E+02  0.53228E+02
  0.74303E+02  0.11413E+03  0.14788E+03  0.16601E+03  0.17659E+03  0.18398E+03
  0.17762E+03  0.16019E+03  0.12100E+03  0.29920E+02  0.31130E+02  0.41848E+02
  0.13878E+03  0.24966E+03  0.42217E+03  0.64159E+03  0.86739E+03  0.11905E+04
  0.15742E+04  0.19354E+04  0.24215E+04  0.29557E+04  0.35568E+04  0.41415E+04
  0.47821E+04  0.53186E+04  0.58720E+04  0.71820E+04  0.82572E+04  0.97189E+04
  0.11730E+05  0.14532E+05  0.18490E+05  0.24155E+05  0.32369E+05  0.44424E+05
  0.62325E+05  0.45205E+02  0.46493E+02  0.48986E+02  0.55140E+02  0.80855E+02
  0.10678E+03  0.14905E+03  0.22895E+03  0.29667E+03  0.33308E+03  0.35443E+03
  0.36946E+03  0.35704E+03  0.32272E+03  0.24503E+03  0.61314E+02  0.67985E+02
  0.73945E+02  0.26384E+03  0.48032E+03  0.81609E+03  0.12411E+04  0.16749E+04
  0.22920E+04  0.30173E+04  0.36869E+04  0.45776E+04  0.55340E+04  0.65809E+04
  0.75530E+04  0.85717E+04  0.93399E+04  0.10068E+05  0.11983E+05  0.13361E+05
  0.15203E+05  0.17693E+05  0.21098E+05  0.25816E+05  0.32437E+05  0.41855E+05
  0.55424E+05  0.75231E+05  0.90687E+02  0.93269E+02  0.98269E+02  0.11061E+03
  0.16220E+03  0.21419E+03  0.29900E+03  0.45930E+03  0.59520E+03  0.66838E+03
  0.71147E+03  0.74211E+03  0.71787E+03  0.65032E+03  0.49625E+03  0.12559E+03
  0.14720E+03  0.12927E+03  0.50218E+03  0.92628E+03  0.15825E+04  0.24103E+04
  0.32503E+04  0.44400E+04  0.58274E+04  0.70898E+04  0.87540E+04  0.10509E+05
  0.12387E+05  0.14063E+05  0.15749E+05  0.16888E+05  0.17863E+05  0.20794E+05
  0.22595E+05  0.24971E+05  0.28134E+05  0.32387E+05  0.38173E+05  0.46137E+05
  0.57248E+05  0.72947E+05  0.95434E+05  0.18188E+03  0.18706E+03  0.19708E+03
  0.22184E+03  0.32530E+03  0.42958E+03  0.59969E+03  0.92124E+03  0.11940E+04
  0.13410E+04  0.14280E+04  0.14905E+04  0.14433E+04  0.13104E+04  0.10048E+04
  0.25705E+03  0.31634E+03  0.22270E+03  0.95615E+03  0.17888E+04  0.30752E+04
  0.46935E+04  0.63291E+04  0.86379E+04  0.11315E+05  0.13725E+05  0.16881E+05
  0.20161E+05  0.23612E+05  0.26591E+05  0.29486E+05  0.31236E+05  0.32555E+05
  0.37241E+05  0.39638E+05  0.42764E+05  0.46872E+05  0.52314E+05  0.59599E+05
  0.69451E+05  0.82939E+05  0.10163E+06  0.12789E+06  0.36470E+03  0.37507E+03
  0.39518E+03  0.44482E+03  0.65226E+03  0.86139E+03  0.12025E+04  0.18474E+04
  0.23946E+04  0.26902E+04  0.28659E+04  0.29932E+04  0.29015E+04  0.26402E+04
  0.20341E+04  0.52564E+03  0.67554E+03  0.37613E+03  0.18203E+04  0.34578E+04
  0.59846E+04  0.91576E+04  0.12355E+05  0.16857E+05  0.22057E+05  0.26701E+05
  0.32750E+05  0.38974E+05  0.45433E+05  0.50864E+05  0.55988E+05  0.58774E+05
  0.60577E+05  0.68375E+05  0.71607E+05  0.75786E+05  0.81220E+05  0.88333E+05
  0.97723E+05  0.11023E+06  0.12705E+06  0.14995E+06  0.18150E+06  0.80000E+04
  0.79967E+04  0.79917E+04  0.79833E+04  0.79688E+04  0.79470E+04  0.79129E+04
  0.78605E+04  0.77750E+04  0.76403E+04  0.74195E+04  0.71004E+04  0.66581E+04
  0.59200E+04  0.48117E+04  0.34561E+04  0.16056E+04  0.74156E+03  0.35874E+04
  0.68115E+04  0.11782E+05  0.18016E+05  0.24283E+05  0.33095E+05  0.43241E+05
  0.52251E+05  0.63944E+05  0.75880E+05  0.88144E+05  0.98248E+05  0.10756E+06
  0.11215E+06  0.11464E+06  0.12809E+06  0.13250E+06  0.13816E+06  0.14546E+06
  0.15493E+06  0.16729E+06  0.18353E+06  0.20507E+06  0.23391E+06  0.27294E+06
  0.15794E+05  0.15787E+05  0.15777E+05  0.15761E+05  0.15732E+05  0.15689E+05
  0.15621E+05  0.15517E+05  0.15348E+05  0.15082E+05  0.14645E+05  0.14015E+05
  0.13141E+05  0.11683E+05  0.94950E+04  0.68191E+04  0.31673E+04  0.14626E+04
  0.70737E+04  0.13426E+05  0.23215E+05  0.35479E+05  0.47790E+05  0.65078E+05
  0.84942E+05  0.10251E+06  0.12525E+06  0.14832E+06  0.17185E+06  0.19095E+06
  0.20821E+06  0.21604E+06  0.21948E+06  0.24339E+06  0.24946E+06  0.25721E+06
  0.26714E+06  0.27992E+06  0.29645E+06  0.31794E+06  0.34611E+06  0.38328E+06
  0.43282E+06  0.31183E+05  0.31169E+05  0.31150E+05  0.31116E+05  0.31059E+05
  0.30974E+05  0.30840E+05  0.30635E+05  0.30300E+05  0.29773E+05  0.28911E+05
  0.27665E+05  0.25939E+05  0.23060E+05  0.18740E+05  0.13457E+05  0.62498E+04
  0.28856E+04  0.13953E+05  0.26479E+05  0.45769E+05  0.69922E+05  0.94142E+05
  0.12812E+06  0.16711E+06  0.20148E+06  0.24588E+06  0.29076E+06  0.33628E+06
  0.37278E+06  0.40532E+06  0.41905E+06  0.42385E+06  0.46743E+06  0.47582E+06
  0.48650E+06  0.50013E+06  0.51756E+06  0.53995E+06  0.56883E+06  0.60630E+06
  0.65519E+06  0.71950E+06  0.61561E+05  0.61535E+05  0.61496E+05  0.61430E+05
  0.61317E+05  0.61147E+05  0.60883E+05  0.60477E+05  0.59816E+05  0.58775E+05
  0.57072E+05  0.54610E+05  0.51201E+05  0.45517E+05  0.36987E+05  0.26559E+05
  0.12334E+05  0.56940E+04  0.27530E+05  0.52233E+05  0.90268E+05  0.13787E+06
  0.18556E+06  0.25243E+06  0.32907E+06  0.39648E+06  0.48346E+06  0.57111E+06
  0.65965E+06  0.73005E+06  0.79216E+06  0.81688E+06  0.82357E+06  0.90462E+06
  0.91628E+06  0.93108E+06  0.94989E+06  0.97385E+06  0.10045E+07  0.10437E+07
  0.10943E+07  0.11596E+07  0.12447E+07  0.12154E+06  0.12149E+06  0.12141E+06
  0.12128E+06  0.12106E+06  0.12072E+06  0.12020E+06  0.11940E+06  0.11809E+06
  0.11603E+06  0.11267E+06  0.10781E+06  0.10108E+06  0.89852E+05  0.73011E+05
  0.52424E+05  0.24343E+05  0.11237E+05  0.54327E+05  0.10306E+06  0.17809E+06
  0.27194E+06  0.36593E+06  0.49766E+06  0.64849E+06  0.78098E+06  0.95175E+06
  0.11235E+07  0.12964E+07  0.14331E+07  0.15527E+07  0.15982E+07  0.16075E+07
  0.17606E+07  0.17769E+07  0.17975E+07  0.18236E+07  0.18567E+07  0.18989E+07
  0.19527E+07  0.20217E+07  0.21102E+07  0.22244E+07  0.23996E+06  0.23986E+06
  0.23970E+06  0.23945E+06  0.23900E+06  0.23834E+06  0.23731E+06  0.23572E+06
  0.23314E+06  0.22908E+06  0.22244E+06  0.21284E+06  0.19954E+06  0.17738E+06
  0.14413E+06  0.10349E+06  0.48053E+05  0.22181E+05  0.10723E+06  0.20340E+06
  0.35142E+06  0.53656E+06  0.72188E+06  0.98153E+06  0.12787E+07  0.15394E+07
  0.18752E+07  0.22124E+07  0.25512E+07  0.28178E+07  0.30498E+07  0.31350E+07
  0.31481E+07  0.34407E+07  0.34634E+07  0.34921E+07  0.35284E+07  0.35745E+07
  0.36330E+07  0.37073E+07  0.38020E+07  0.39230E+07  0.40782E+07  0.47375E+06
  0.47355E+06  0.47325E+06  0.47274E+06  0.47186E+06  0.47055E+06  0.46851E+06
  0.46538E+06  0.46028E+06  0.45226E+06  0.43914E+06  0.42019E+06  0.39394E+06
  0.35018E+06  0.28453E+06  0.20429E+06  0.94857E+05  0.43784E+05  0.21165E+06
  0.40146E+06  0.69356E+06  0.10588E+07  0.14244E+07  0.19364E+07  0.25222E+07
  0.30358E+07  0.36969E+07  0.43598E+07  0.50252E+07  0.55470E+07  0.59991E+07
  0.61608E+07  0.61792E+07  0.67434E+07  0.67752E+07  0.68153E+07  0.68661E+07
  0.69303E+07  0.70116E+07  0.71147E+07  0.72456E+07  0.74123E+07  0.76251E+07
  0.93536E+06  0.93496E+06  0.93436E+06  0.93335E+06  0.93162E+06  0.92904E+06
  0.92501E+06  0.91882E+06  0.90875E+06  0.89292E+06  0.86700E+06  0.82957E+06
  0.77774E+06  0.69134E+06  0.56174E+06  0.40331E+06  0.18726E+06  0.86435E+05
  0.41780E+06  0.79247E+06  0.13690E+07  0.20899E+07  0.28111E+07  0.38212E+07
  0.49765E+07  0.59887E+07  0.72914E+07  0.85966E+07  0.99052E+07  0.10929E+08
  0.11813E+08  0.12124E+08  0.12149E+08  0.13245E+08  0.13289E+08  0.13345E+08
  0.13416E+08  0.13506E+08  0.13619E+08  0.13763E+08  0.13945E+08  0.14176E+08
  0.14469E+08  0.18467E+07  0.18459E+07  0.18447E+07  0.18427E+07  0.18393E+07
  0.18342E+07  0.18262E+07  0.18140E+07  0.17941E+07  0.17629E+07  0.17117E+07
  0.16378E+07  0.15354E+07  0.13649E+07  0.11090E+07  0.79622E+06  0.36969E+06
  0.17063E+06  0.82477E+06  0.15643E+07  0.27023E+07  0.41250E+07  0.55483E+07
  0.75414E+07  0.98204E+07  0.11817E+08  0.14385E+08  0.16956E+08  0.19533E+08
  0.21545E+08  0.23280E+08  0.23879E+08  0.23916E+08  0.26052E+08  0.26114E+08
  0.26193E+08  0.26292E+08  0.26417E+08  0.26576E+08  0.26776E+08  0.27030E+08
  0.27351E+08  0.27758E+08  0.36462E+07  0.36446E+07  0.36423E+07  0.36384E+07
  0.36316E+07  0.36215E+07  0.36058E+07  0.35817E+07  0.35424E+07  0.34807E+07
  0.33796E+07  0.32337E+07  0.30316E+07  0.26948E+07  0.21896E+07  0.15720E+07
  0.72989E+06  0.33689E+06  0.16283E+07  0.30884E+07  0.53349E+07  0.81434E+07
  0.10953E+08  0.14886E+08  0.19384E+08  0.23322E+08  0.28387E+08  0.33457E+08
  0.38535E+08  0.42495E+08  0.45904E+08  0.47070E+08  0.47121E+08  0.51301E+08
  0.51389E+08  0.51499E+08  0.51639E+08  0.51814E+08  0.52036E+08  0.52317E+08
  0.52671E+08  0.53119E+08  0.53686E+08  0.00000E+00  0.00000E+00  0.00000E+00
  0.00000E+00  0.00000E+00  0.00000E+00  0.00000E+00  0.00000E+00  0.00000E+00
  0.00000E+00  0.00000E+00  0.00000E+00  0.00000E+00  0.17843E-04  0.26589E-03
  0.73453E-03  0.17126E-02  0.48392E-02  0.10813E-01  0.23626E-01  0.54325E-01
  0.11254E+00  0.22568E+00  0.49889E+00  0.12362E+01  0.28878E+01  0.69533E+01
  0.18552E+02  0.33428E+02  0.57960E+02  0.98666E+02  0.16009E+03  0.25401E+03
  0.72615E+03  0.11523E+04  0.18288E+04  0.29026E+04  0.46066E+04  0.73121E+04
  0.11606E+05  0.18423E+05  0.29242E+05  0.46417E+05  0.00000E+00  0.00000E+00
  0.00000E+00  0.00000E+00  0.00000E+00  0.00000E+00  0.00000E+00  0.00000E+00
  0.00000E+00  0.00000E+00  0.00000E+00  0.00000E+00  0.92020E-08  0.96508E-04
  0.34156E-03  0.90106E-03  0.23985E-02  0.70020E-02  0.15274E-01  0.32208E-01
  0.70108E-01  0.15091E+00  0.29767E+00  0.62393E+00  0.14818E+01  0.33431E+01
  0.85463E+01  0.20201E+02  0.37874E+02  0.67682E+02  0.11519E+03  0.18688E+03
  0.29648E+03  0.72641E+03  0.11527E+04  0.18292E+04  0.29031E+04  0.46072E+04
  0.73129E+04  0.11607E+05  0.18424E+05  0.29243E+05  0.46418E+05  0.00000E+00
  0.00000E+00  0.00000E+00  0.00000E+00  0.00000E+00  0.00000E+00  0.00000E+00
  0.00000E+00  0.00000E+00  0.00000E+00  0.00000E+00  0.00000E+00  0.45474E-04
  0.15638E-03  0.52975E-03  0.12343E-02  0.31212E-02  0.92559E-02  0.19890E-01
  0.41690E-01  0.92201E-01  0.19707E+00  0.39819E+00  0.82159E+00  0.17729E+01
  0.40053E+01  0.10257E+02  0.21862E+02  0.42341E+02  0.77435E+02  0.13176E+03
  0.21372E+03  0.33901E+03  0.72673E+03  0.11531E+04  0.18297E+04  0.29037E+04
  0.46080E+04  0.73138E+04  0.11608E+05  0.18426E+05  0.29245E+05  0.46420E+05
  0.00000E+00  0.00000E+00  0.00000E+00  0.00000E+00  0.00000E+00  0.00000E+00
  0.00000E+00  0.00000E+00  0.00000E+00  0.00000E+00  0.00000E+00  0.00000E+00
  0.48477E-04  0.16482E-03  0.59009E-03  0.13591E-02  0.35585E-02  0.11670E-01
  0.25180E-01  0.52771E-01  0.11514E+00  0.24396E+00  0.48898E+00  0.10054E+01
  0.22295E+01  0.47666E+01  0.11988E+02  0.24957E+02  0.46403E+02  0.82410E+02
  0.14019E+03  0.22732E+03  0.36053E+03  0.72713E+03  0.11536E+04  0.18304E+04
  0.29044E+04  0.46089E+04  0.73150E+04  0.11610E+05  0.18427E+05  0.29247E+05
  0.46422E+05  0.00000E+00  0.00000E+00  0.00000E+00  0.00000E+00  0.00000E+00
  0.00000E+00  0.00000E+00  0.00000E+00  0.00000E+00  0.00000E+00  0.00000E+00
  0.00000E+00  0.81943E-04  0.25997E-03  0.94550E-03  0.22465E-02  0.58121E-02
  0.17956E-01  0.38337E-01  0.79347E-01  0.17030E+00  0.36350E+00  0.73414E+00
  0.15127E+01  0.32390E+01  0.67459E+01  0.13729E+02  0.28061E+02  0.50475E+02
  0.87397E+02  0.14861E+03  0.24092E+03  0.38200E+03  0.72764E+03  0.11542E+04
  0.18311E+04  0.29054E+04  0.46101E+04  0.73164E+04  0.11611E+05  0.18429E+05
  0.29249E+05  0.46425E+05  0.00000E+00  0.00000E+00  0.00000E+00  0.00000E+00
  0.00000E+00  0.00000E+00  0.00000E+00  0.00000E+00  0.00000E+00  0.00000E+00
  0.00000E+00  0.00000E+00  0.89659E-04  0.29865E-03  0.11577E-02  0.27811E-02
  0.74481E-02  0.20672E-01  0.43663E-01  0.89754E-01  0.19306E+00  0.41323E+00
  0.82885E+00  0.16963E+01  0.35071E+01  0.69645E+01  0.14373E+02  0.28161E+02
  0.50619E+02  0.87594E+02  0.14888E+03  0.24126E+03  0.38242E+03  0.72828E+03
  0.11550E+04  0.18321E+04  0.29066E+04  0.46116E+04  0.73182E+04  0.11614E+05
  0.18432E+05  0.29252E+05  0.46429E+05  0.00000E+00  0.00000E+00  0.00000E+00
  0.00000E+00  0.00000E+00  0.00000E+00  0.00000E+00  0.00000E+00  0.00000E+00
  0.00000E+00  0.00000E+00  0.00000E+00  0.10553E-03  0.35810E-03  0.13452E-02
  0.32817E-02  0.86629E-02  0.23066E-01  0.48208E-01  0.98415E-01  0.21169E+00
  0.45178E+00  0.90086E+00  0.18341E+01  0.37289E+01  0.72366E+01  0.14953E+02
  0.28290E+02  0.50803E+02  0.87846E+02  0.14922E+03  0.24170E+03  0.38297E+03
  0.72910E+03  0.11560E+04  0.18334E+04  0.29083E+04  0.46137E+04  0.73208E+04
  0.11617E+05  0.18436E+05  0.29257E+05  0.46434E+05  0.00000E+00  0.00000E+00
  0.00000E+00  0.00000E+00  0.00000E+00  0.00000E+00  0.00000E+00  0.00000E+00
  0.00000E+00  0.00000E+00  0.00000E+00  0.00000E+00  0.13282E-03  0.44757E-03
  0.15176E-02  0.37863E-02  0.95202E-02  0.25309E-01  0.52311E-01  0.10599E+00
  0.22765E+00  0.48228E+00  0.95617E+00  0.19379E+01  0.39222E+01  0.75794E+01
  0.15513E+02  0.28453E+02  0.51035E+02  0.88166E+02  0.14965E+03  0.24225E+03
  0.38367E+03  0.73015E+03  0.11573E+04  0.18351E+04  0.29103E+04  0.46163E+04
  0.73240E+04  0.11621E+05  0.18441E+05  0.29264E+05  0.46442E+05  0.00000E+00
  0.00000E+00  0.00000E+00  0.00000E+00  0.00000E+00  0.00000E+00  0.00000E+00
  0.11542E-05  0.23420E-05  0.00000E+00  0.00000E+00  0.00000E+00  0.15744E-03
  0.51998E-03  0.17609E-02  0.42737E-02  0.10630E-01  0.28329E-01  0.57781E-01
  0.11576E+00  0.24640E+00  0.51812E+00  0.10280E+01  0.20709E+01  0.41457E+01
  0.80520E+01  0.15733E+02  0.28659E+02  0.51329E+02  0.88569E+02  0.15019E+03
  0.24295E+03  0.38454E+03  0.73148E+03  0.11590E+04  0.18372E+04  0.29130E+04
  0.46195E+04  0.73281E+04  0.11626E+05  0.18447E+05  0.29271E+05  0.46452E+05
  0.00000E+00  0.00000E+00  0.00000E+00  0.00000E+00  0.00000E+00  0.00000E+00
  0.00000E+00  0.36814E-05  0.74476E-05  0.11067E-04  0.00000E+00  0.00000E+00
  0.18769E-03  0.60578E-03  0.21018E-02  0.52595E-02  0.12526E-01  0.32443E-01
  0.65156E-01  0.12875E+00  0.27076E+00  0.56387E+00  0.11137E+01  0.22284E+01
  0.44216E+01  0.84772E+01  0.15912E+02  0.28918E+02  0.51698E+02  0.89075E+02
  0.15088E+03  0.24382E+03  0.38564E+03  0.73313E+03  0.11611E+04  0.18397E+04
  0.29162E+04  0.46235E+04  0.73331E+04  0.11632E+05  0.18455E+05  0.29281E+05
  0.46463E+05  0.00000E+00  0.00000E+00  0.00000E+00  0.00000E+00  0.00000E+00
  0.00000E+00  0.00000E+00  0.96976E-05  0.20706E-04  0.32574E-04  0.00000E+00
  0.00000E+00  0.24131E-03  0.77500E-03  0.26028E-02  0.63226E-02  0.14927E-01
  0.38108E-01  0.75197E-01  0.14660E+00  0.30626E+00  0.62998E+00  0.12338E+01
  0.24635E+01  0.47536E+01  0.87126E+01  0.16136E+02  0.29242E+02  0.52159E+02
  0.89705E+02  0.15172E+03  0.24490E+03  0.38698E+03  0.73514E+03  0.11636E+04
  0.18428E+04  0.29200E+04  0.46282E+04  0.73387E+04  0.11639E+05  0.18463E+05
  0.29290E+05  0.46473E+05  0.22316E-05  0.30564E-05  0.41726E-05  0.56889E-05
  0.86521E-05  0.29894E-04  0.77506E-04  0.10464E-03  0.11096E-03  0.72127E-04
  0.43597E-04  0.67745E-04  0.38839E-03  0.12386E-02  0.33058E-02  0.79295E-02
  0.18379E-01  0.42524E-01  0.83687E-01  0.16174E+00  0.33475E+00  0.68223E+00
  0.13338E+01  0.26444E+01  0.50579E+01  0.91634E+01  0.16928E+02  0.30609E+02
  0.54497E+02  0.93572E+02  0.15804E+03  0.25477E+03  0.40210E+03  0.73358E+03
  0.11602E+04  0.18364E+04  0.29085E+04  0.46082E+04  0.73048E+04  0.11582E+05
  0.18370E+05  0.29138E+05  0.46226E+05  0.84717E-05  0.13218E-04  0.19837E-04
  0.29806E-04  0.10134E-03  0.25743E-03  0.41541E-03  0.56440E-03  0.64618E-03
  0.66508E-03  0.55958E-03  0.28145E-03  0.62301E-04  0.17389E-02  0.60763E-02
  0.14607E-01  0.32900E-01  0.68904E-01  0.12892E+00  0.23467E+00  0.45415E+00
  0.87532E+00  0.16073E+01  0.30639E+01  0.57711E+01  0.10318E+02  0.18858E+02
  0.33800E+02  0.59747E+02  0.10198E+03  0.17141E+03  0.27521E+03  0.43292E+03
  0.73812E+03  0.11650E+04  0.18408E+04  0.29115E+04  0.46081E+04  0.72985E+04
  0.11564E+05  0.18332E+05  0.29065E+05  0.46095E+05  0.21515E-04  0.31549E-04
  0.52578E-04  0.10840E-03  0.28941E-03  0.73375E-03  0.11542E-02  0.14224E-02
  0.16473E-02  0.17637E-02  0.17161E-02  0.13981E-02  0.64821E-03  0.56303E-03
  0.52056E-02  0.15701E-01  0.36733E-01  0.76579E-01  0.14300E+00  0.25789E+00
  0.49444E+00  0.94261E+00  0.17103E+01  0.32274E+01  0.60233E+01  0.10678E+02
  0.19383E+02  0.34539E+02  0.60759E+02  0.10328E+03  0.17303E+03  0.27699E+03
  0.43466E+03  0.73995E+03  0.11660E+04  0.18402E+04  0.29076E+04  0.45983E+04
  0.72784E+04  0.11527E+05  0.18265E+05  0.28949E+05  0.45901E+05  0.52414E-04
  0.69083E-04  0.12511E-03  0.32054E-03  0.82610E-03  0.16931E-02  0.24841E-02
  0.30150E-02  0.34938E-02  0.37825E-02  0.38175E-02  0.34696E-02  0.24458E-02
  0.88862E-03  0.35806E-02  0.16203E-01  0.41315E-01  0.86908E-01  0.16241E+00
  0.29009E+00  0.55031E+00  0.10356E+01  0.18523E+01  0.34518E+01  0.63685E+01
  0.11171E+02  0.20102E+02  0.35557E+02  0.62165E+02  0.10512E+03  0.17535E+03
  0.27967E+03  0.43753E+03  0.74331E+03  0.11690E+04  0.18420E+04  0.29067E+04
  0.45923E+04  0.72630E+04  0.11495E+05  0.18205E+05  0.28843E+05  0.45718E+05
  0.11965E-03  0.14628E-03  0.28844E-03  0.85457E-03  0.21329E-02  0.36977E-02
  0.50604E-02  0.60372E-02  0.69733E-02  0.75684E-02  0.77569E-02  0.74510E-02
  0.64504E-02  0.33441E-02  0.75960E-03  0.15669E-01  0.46807E-01  0.10062E+00
  0.18900E+00  0.33463E+00  0.62765E+00  0.11639E+01  0.20475E+01  0.37587E+01
  0.68387E+01  0.11842E+02  0.21080E+02  0.36942E+02  0.64084E+02  0.10765E+03
  0.17860E+03  0.28353E+03  0.44184E+03  0.74863E+03  0.11744E+04  0.18468E+04
  0.29097E+04  0.45911E+04  0.72537E+04  0.11471E+05  0.18155E+05  0.28749E+05
  0.45550E+05  0.23083E-03  0.43656E-03  0.89553E-03  0.21714E-02  0.46813E-02
  0.75300E-02  0.99311E-02  0.11713E-01  0.13377E-01  0.14440E-01  0.14920E-01
  0.14651E-01  0.13396E-01  0.89269E-02  0.38217E-02  0.96767E-02  0.49284E-01
  0.11568E+00  0.22187E+00  0.39189E+00  0.72937E+00  0.13339E+01  0.23061E+01
  0.41647E+01  0.74586E+01  0.12723E+02  0.22360E+02  0.38750E+02  0.66585E+02
  0.11095E+03  0.18282E+03  0.28856E+03  0.44751E+03  0.75567E+03  0.11817E+04
  0.18536E+04  0.29144E+04  0.45911E+04  0.72443E+04  0.11444E+05  0.18098E+05
  0.28640E+05  0.45353E+05  0.43207E-03  0.11850E-02  0.24814E-02  0.53067E-02
  0.10130E-01  0.15113E-01  0.19144E-01  0.22306E-01  0.25148E-01  0.26933E-01
  0.27937E-01  0.27762E-01  0.26169E-01  0.20227E-01  0.12434E-01  0.00000E+00
  0.48905E-01  0.13375E+00  0.26580E+00  0.47061E+00  0.87069E+00  0.15701E+01
  0.26637E+01  0.47230E+01  0.83062E+01  0.13922E+02  0.24095E+02  0.41196E+02
  0.69967E+02  0.11542E+03  0.18859E+03  0.29553E+03  0.45557E+03  0.76592E+03
  0.11930E+04  0.18653E+04  0.29254E+04  0.45989E+04  0.72446E+04  0.11430E+05
  0.18056E+05  0.28550E+05  0.45180E+05  0.75159E-03  0.28767E-02  0.60972E-02
  0.11980E-01  0.20680E-01  0.28659E-01  0.34764E-01  0.39984E-01  0.44430E-01
  0.47111E-01  0.48894E-01  0.48803E-01  0.46684E-01  0.39799E-01  0.25959E-01
  0.50596E-02  0.51001E-01  0.16488E+00  0.33668E+00  0.59403E+00  0.10865E+01
  0.19234E+01  0.31909E+01  0.55338E+01  0.95223E+01  0.15631E+02  0.26551E+02
  0.44646E+02  0.74737E+02  0.12176E+03  0.19687E+03  0.30575E+03  0.46781E+03
  0.78202E+03  0.12121E+04  0.18875E+04  0.29506E+04  0.46265E+04  0.72730E+04
  0.11455E+05  0.18072E+05  0.28546E+05  0.45135E+05  0.13839E-02  0.52857E-02
  0.11347E-01  0.22874E-01  0.37708E-01  0.51129E-01  0.62076E-01  0.70836E-01
  0.77794E-01  0.82145E-01  0.84839E-01  0.84810E-01  0.81724E-01  0.71950E-01
  0.51353E-01  0.17840E-01  0.39231E-01  0.19671E+00  0.42657E+00  0.75910E+00
  0.13824E+01  0.24111E+01  0.39161E+01  0.66434E+01  0.11174E+02  0.17931E+02
  0.29832E+02  0.49220E+02  0.81019E+02  0.13006E+03  0.20764E+03  0.31899E+03
  0.48363E+03  0.80275E+03  0.12365E+04  0.19160E+04  0.29830E+04  0.46621E+04
  0.73096E+04  0.11489E+05  0.18095E+05  0.28542E+05  0.45081E+05  0.25581E-02
  0.92678E-02  0.20234E-01  0.42667E-01  0.67222E-01  0.89606E-01  0.10987E+00
  0.12449E+00  0.13508E+00  0.14227E+00  0.14606E+00  0.14619E+00  0.14159E+00
  0.12677E+00  0.96893E-01  0.47866E-01  0.92461E-02  0.23025E+00  0.54775E+00
  0.99156E+00  0.18058E+01  0.31095E+01  0.49482E+01  0.82098E+01  0.13484E+02
  0.21115E+02  0.34332E+02  0.55442E+02  0.89504E+02  0.14120E+03  0.22207E+03
  0.33672E+03  0.50486E+03  0.83065E+03  0.12698E+04  0.19553E+04  0.30288E+04
  0.47141E+04  0.73668E+04  0.11548E+05  0.18149E+05  0.28579E+05  0.45077E+05
  0.47288E-02  0.16097E-01  0.35902E-01  0.79750E-01  0.11939E+00  0.15602E+00
  0.19382E+00  0.21797E+00  0.23333E+00  0.24522E+00  0.25002E+00  0.25041E+00
  0.24335E+00  0.21994E+00  0.17606E+00  0.11003E+00  0.20064E-01  0.27470E+00
  0.72769E+00  0.13405E+01  0.24402E+01  0.41474E+01  0.64662E+01  0.10486E+02
  0.16799E+02  0.25633E+02  0.40645E+02  0.64083E+02  0.10119E+03  0.15646E+03
  0.24173E+03  0.36086E+03  0.53388E+03  0.86892E+03  0.13159E+04  0.20108E+04
  0.30951E+04  0.47927E+04  0.74585E+04  0.11652E+05  0.18264E+05  0.28698E+05
  0.45187E+05  0.82558E-02  0.29170E-01  0.64143E-01  0.13790E+00  0.20771E+00
  0.26991E+00  0.32992E+00  0.36881E+00  0.39418E+00  0.41215E+00  0.41951E+00
  0.41888E+00  0.40672E+00  0.37014E+00  0.30295E+00  0.20587E+00  0.68150E-01
  0.31229E+00  0.97479E+00  0.18447E+01  0.33726E+01  0.56752E+01  0.86870E+01
  0.13788E+02  0.21558E+02  0.32042E+02  0.49494E+02  0.76060E+02  0.11721E+03
  0.17719E+03  0.26823E+03  0.39322E+03  0.57262E+03  0.91983E+03  0.13773E+04
  0.20848E+04  0.31841E+04  0.48991E+04  0.75846E+04  0.11800E+05  0.18432E+05
  0.28883E+05  0.45379E+05  0.14247E-01  0.53267E-01  0.11478E+00  0.23471E+00
  0.35938E+00  0.46514E+00  0.55545E+00  0.61702E+00  0.66000E+00  0.68597E+00
  0.69782E+00  0.69384E+00  0.67213E+00  0.61418E+00  0.50816E+00  0.36056E+00
  0.14725E+00  0.35992E+00  0.13519E+01  0.26204E+01  0.48034E+01  0.80019E+01
  0.12036E+02  0.18710E+02  0.28561E+02  0.41354E+02  0.62186E+02  0.93021E+02
  0.13964E+03  0.20590E+03  0.30462E+03  0.43737E+03  0.62529E+03  0.98882E+03
  0.14606E+04  0.21857E+04  0.33065E+04  0.50475E+04  0.77640E+04  0.12015E+05
  0.18689E+05  0.29185E+05  0.45728E+05  0.24327E-01  0.96970E-01  0.20446E+00
  0.39458E+00  0.61646E+00  0.79457E+00  0.92302E+00  0.10182E+01  0.10914E+01
  0.11272E+01  0.11470E+01  0.11355E+01  0.10972E+01  0.10059E+01  0.83706E+00
  0.61209E+00  0.27283E+00  0.43513E+00  0.19490E+01  0.38411E+01  0.70366E+01
  0.11600E+02  0.17160E+02  0.26154E+02  0.39022E+02  0.55082E+02  0.80645E+02
  0.11736E+03  0.17140E+03  0.24608E+03  0.35501E+03  0.49797E+03  0.69711E+03
  0.10823E+04  0.15732E+04  0.23220E+04  0.34723E+04  0.52497E+04  0.80110E+04
  0.12317E+05  0.19057E+05  0.29631E+05  0.46265E+05  0.41519E-01  0.17122E+00
  0.35692E+00  0.66722E+00  0.10551E+01  0.13558E+01  0.15515E+01  0.17034E+01
  0.18279E+01  0.18810E+01  0.19140E+01  0.18901E+01  0.18246E+01  0.16791E+01
  0.14104E+01  0.10636E+01  0.52704E+00  0.39013E+00  0.27281E+01  0.55941E+01
  0.10357E+02  0.17006E+02  0.24857E+02  0.37290E+02  0.54554E+02  0.75252E+02
  0.10746E+03  0.15227E+03  0.21637E+03  0.30221E+03  0.42447E+03  0.58047E+03
  0.79372E+03  0.12069E+04  0.17217E+04  0.25003E+04  0.36875E+04  0.55102E+04
  0.83269E+04  0.12700E+05  0.19520E+05  0.30189E+05  0.46930E+05  0.67329E-01
  0.27757E+00  0.57836E+00  0.10806E+01  0.17115E+01  0.21946E+01  0.25144E+01
  0.27545E+01  0.29528E+01  0.30357E+01  0.30810E+01  0.30344E+01  0.29200E+01
  0.26789E+01  0.22474E+01  0.16982E+01  0.86432E+00  0.46260E+00  0.41237E+01
  0.85404E+01  0.15776E+02  0.25677E+02  0.37046E+02  0.54701E+02  0.78531E+02
  0.10601E+03  0.14779E+03  0.20406E+03  0.28217E+03  0.38325E+03  0.52352E+03
  0.69680E+03  0.92871E+03  0.13793E+04  0.19262E+04  0.27451E+04  0.39828E+04
  0.58688E+04  0.87646E+04  0.13237E+05  0.20179E+05  0.31001E+05  0.47931E+05
  0.10919E+00  0.45001E+00  0.93735E+00  0.17506E+01  0.27792E+01  0.35554E+01
  0.40820E+01  0.44618E+01  0.47804E+01  0.49130E+01  0.49752E+01  0.48898E+01
  0.46936E+01  0.42959E+01  0.36032E+01  0.27307E+01  0.14269E+01  0.49059E+00
  0.62710E+01  0.13154E+02  0.24294E+02  0.39281E+02  0.56076E+02  0.81707E+02
  0.11542E+03  0.15285E+03  0.20854E+03  0.28113E+03  0.37879E+03  0.50065E+03
  0.66502E+03  0.86074E+03  0.11165E+04  0.16162E+04  0.22042E+04  0.30746E+04
  0.43769E+04  0.63441E+04  0.93416E+04  0.13941E+05  0.21042E+05  0.32062E+05
  0.49238E+05  0.17708E+00  0.72969E+00  0.15195E+01  0.28369E+01  0.45184E+01
  0.57654E+01  0.66389E+01  0.72397E+01  0.77555E+01  0.79734E+01  0.80585E+01
  0.79069E+01  0.75743E+01  0.69202E+01  0.58084E+01  0.44184E+01  0.23702E+01
  0.39215E+00  0.95797E+01  0.20403E+02  0.37749E+02  0.60756E+02  0.86003E+02
  0.12395E+03  0.17271E+03  0.22499E+03  0.30118E+03  0.39734E+03  0.52272E+03
  0.67322E+03  0.87019E+03  0.10952E+04  0.13813E+04  0.19461E+04  0.25865E+04
  0.35228E+04  0.49079E+04  0.69790E+04  0.10107E+05  0.14869E+05  0.22175E+05
  0.33450E+05  0.50944E+05  0.28717E+00  0.11831E+01  0.24632E+01  0.45975E+01
  0.73543E+01  0.93554E+01  0.10817E+02  0.11765E+02  0.12607E+02  0.12974E+02
  0.13088E+02  0.12825E+02  0.12266E+02  0.11191E+02  0.94069E+01  0.71876E+01
  0.39598E+01  0.00000E+00  0.14680E+02  0.31826E+02  0.59080E+02  0.94810E+02
  0.13333E+03  0.19048E+03  0.26243E+03  0.33713E+03  0.44396E+03  0.57467E+03
  0.73989E+03  0.93042E+03  0.11720E+04  0.14353E+04  0.17603E+04  0.24117E+04
  0.31190E+04  0.41395E+04  0.56305E+04  0.78345E+04  0.11129E+05  0.16101E+05
  0.23670E+05  0.35273E+05  0.53177E+05  0.46244E+00  0.19050E+01  0.39654E+01
  0.73998E+01  0.11904E+02  0.15087E+02  0.17538E+02  0.19018E+02  0.20392E+02
  0.21016E+02  0.21160E+02  0.20706E+02  0.19767E+02  0.17999E+02  0.15135E+02
  0.11583E+02  0.64879E+01  0.17870E+00  0.23053E+02  0.50383E+02  0.93537E+02
  0.14957E+03  0.20910E+03  0.29645E+03  0.40450E+03  0.51353E+03  0.66679E+03
  0.84896E+03  0.10724E+04  0.13198E+04  0.16232E+04  0.19372E+04  0.23119E+04
  0.30802E+04  0.38734E+04  0.50020E+04  0.66292E+04  0.90046E+04  0.12515E+05
  0.17758E+05  0.25668E+05  0.37699E+05  0.56141E+05  0.74218E+00  0.30570E+01
  0.63626E+01  0.11871E+02  0.19235E+02  0.24270E+02  0.28409E+02  0.30698E+02
  0.32950E+02  0.34034E+02  0.34194E+02  0.33415E+02  0.31838E+02  0.28925E+02
  0.24329E+02  0.18635E+02  0.10580E+02  0.42028E+00  0.36711E+02  0.80482E+02
  0.14922E+03  0.23779E+03  0.33075E+03  0.46592E+03  0.63064E+03  0.79275E+03
  0.10172E+04  0.12770E+04  0.15866E+04  0.19159E+04  0.23063E+04  0.26877E+04
  0.31261E+04  0.40533E+04  0.49564E+04  0.62235E+04  0.80249E+04  0.10620E+05
  0.14407E+05  0.19998E+05  0.28346E+05  0.40929E+05  0.60065E+05  0.11912E+01
  0.49059E+01  0.10210E+02  0.19046E+02  0.31149E+02  0.39084E+02  0.46157E+02
  0.49665E+02  0.53393E+02  0.55315E+02  0.55448E+02  0.54119E+02  0.51472E+02
  0.46659E+02  0.39285E+02  0.30141E+02  0.17401E+02  0.88206E+00  0.58594E+02
  0.12894E+03  0.23895E+03  0.37979E+03  0.52619E+03  0.73744E+03  0.99172E+03
  0.12366E+04  0.15713E+04  0.19495E+04  0.23885E+04  0.28373E+04  0.33516E+04
  0.38234E+04  0.43430E+04  0.54887E+04  0.65320E+04  0.79757E+04  0.99997E+04
  0.12875E+05  0.17015E+05  0.23051E+05  0.31958E+05  0.45246E+05  0.65269E+05
  0.95261E+02  0.95250E+02  0.95227E+02  0.95175E+02  0.95067E+02  0.94892E+02
  0.94602E+02  0.94132E+02  0.93327E+02  0.92019E+02  0.89811E+02  0.86569E+02
  0.82022E+02  0.74270E+02  0.62450E+02  0.47836E+02  0.27566E+02  0.13929E+01
  0.94766E+02  0.20816E+03  0.38487E+03  0.60999E+03  0.84213E+03  0.11751E+04
  0.15717E+04  0.19469E+04  0.24539E+04  0.30148E+04  0.36506E+04  0.42766E+04
  0.49702E+04  0.55644E+04  0.61879E+04  0.76381E+04  0.88608E+04  0.10530E+05
  0.12839E+05  0.16073E+05  0.20665E+05  0.27270E+05  0.36895E+05  0.51086E+05
  0.72247E+05  0.15237E+03  0.15235E+03  0.15230E+03  0.15220E+03  0.15201E+03
  0.15171E+03  0.15122E+03  0.15044E+03  0.14911E+03  0.14697E+03  0.14338E+03
  0.13813E+03  0.13078E+03  0.11832E+03  0.99382E+02  0.76023E+02  0.43734E+02
  0.22052E+01  0.15351E+03  0.33671E+03  0.62142E+03  0.98268E+03  0.13528E+04
  0.18811E+04  0.25052E+04  0.30866E+04  0.38649E+04  0.47105E+04  0.56490E+04
  0.65411E+04  0.74978E+04  0.82598E+04  0.90157E+04  0.10896E+05  0.12348E+05
  0.14306E+05  0.16978E+05  0.20669E+05  0.25838E+05  0.33170E+05  0.43710E+05
  0.59054E+05  0.81669E+05  0.24374E+03  0.24369E+03  0.24360E+03  0.24343E+03
  0.24310E+03  0.24260E+03  0.24178E+03  0.24048E+03  0.23831E+03  0.23482E+03
  0.22901E+03  0.22052E+03  0.20868E+03  0.18867E+03  0.15833E+03  0.12098E+03
  0.69506E+02  0.34987E+01  0.24896E+03  0.54545E+03  0.10052E+04  0.15868E+04
  0.21796E+04  0.30223E+04  0.40112E+04  0.49211E+04  0.61295E+04  0.74221E+04
  0.88306E+04  0.10128E+05  0.11476E+05  0.12471E+05  0.13396E+05  0.15894E+05
  0.17637E+05  0.19963E+05  0.23099E+05  0.27374E+05  0.33279E+05  0.41538E+05
  0.53247E+05  0.70063E+05  0.94532E+05  0.38992E+03  0.38982E+03  0.38966E+03
  0.38936E+03  0.38882E+03  0.38797E+03  0.38662E+03  0.38449E+03  0.38095E+03
  0.37529E+03  0.36590E+03  0.35222E+03  0.33316E+03  0.30104E+03  0.25246E+03
  0.19275E+03  0.11061E+03  0.55604E+01  0.40414E+03  0.88465E+03  0.16285E+04
  0.25671E+04  0.35200E+04  0.48701E+04  0.64458E+04  0.78810E+04  0.97748E+04
  0.11774E+05  0.13919E+05  0.15839E+05  0.17778E+05  0.19100E+05  0.20241E+05
  0.23637E+05  0.25754E+05  0.28550E+05  0.32277E+05  0.37298E+05  0.44142E+05
  0.53585E+05  0.66785E+05  0.85480E+05  0.11232E+06  0.62377E+03  0.62359E+03
  0.62331E+03  0.62281E+03  0.62190E+03  0.62051E+03  0.61829E+03  0.61482E+03
  0.60907E+03  0.59993E+03  0.58478E+03  0.56276E+03  0.53212E+03  0.48061E+03
  0.40283E+03  0.30733E+03  0.17622E+03  0.88487E+01  0.65656E+03  0.14362E+04
  0.26415E+04  0.41592E+04  0.56951E+04  0.78659E+04  0.10388E+05  0.12667E+05
  0.15658E+05  0.18782E+05  0.22089E+05  0.24977E+05  0.27819E+05  0.29608E+05
  0.31024E+05  0.35747E+05  0.38339E+05  0.41734E+05  0.46217E+05  0.52190E+05
  0.60233E+05  0.71186E+05  0.86290E+05  0.10738E+06  0.13724E+06  0.99787E+03
  0.99757E+03  0.99709E+03  0.99626E+03  0.99476E+03  0.99248E+03  0.98886E+03
  0.98323E+03  0.97393E+03  0.95916E+03  0.93478E+03  0.89939E+03  0.85019E+03
  0.76761E+03  0.64310E+03  0.49038E+03  0.28098E+03  0.14097E+02  0.10673E+04
  0.23333E+04  0.42885E+04  0.67466E+04  0.92280E+04  0.12728E+05  0.16780E+05
  0.20417E+05  0.25171E+05  0.30093E+05  0.35246E+05  0.39651E+05  0.43885E+05
  0.46351E+05  0.48119E+05  0.54828E+05  0.58027E+05  0.62188E+05  0.67635E+05
  0.74822E+05  0.84396E+05  0.97277E+05  0.11481E+06  0.13896E+06  0.17268E+06
  0.15964E+04  0.15959E+04  0.15951E+04  0.15937E+04  0.15913E+04  0.15875E+04
  0.15817E+04  0.15725E+04  0.15575E+04  0.15338E+04  0.14946E+04  0.14377E+04
  0.13588E+04  0.12264E+04  0.10272E+04  0.78288E+03  0.44833E+03  0.22477E+02
  0.17357E+04  0.37929E+04  0.69675E+04  0.10954E+05  0.14969E+05  0.20624E+05
  0.27154E+05  0.32984E+05  0.40576E+05  0.48383E+05  0.56481E+05  0.63281E+05
  0.69688E+05  0.73148E+05  0.75365E+05  0.85086E+05  0.89061E+05  0.94198E+05
  0.10088E+06  0.10961E+06  0.12114E+06  0.13648E+06  0.15712E+06  0.18518E+06
  0.22381E+06  0.25540E+04  0.25532E+04  0.25518E+04  0.25496E+04  0.25456E+04
  0.25396E+04  0.25300E+04  0.25153E+04  0.24911E+04  0.24529E+04  0.23899E+04
  0.22987E+04  0.21721E+04  0.19601E+04  0.16412E+04  0.12504E+04  0.71576E+03
  0.35866E+02  0.28237E+04  0.61683E+04  0.11326E+05  0.17797E+05  0.24304E+05
  0.33458E+05  0.44004E+05  0.53378E+05  0.65556E+05  0.78006E+05  0.90824E+05
  0.10143E+06  0.11125E+06  0.11619E+06  0.11898E+06  0.13332E+06  0.13829E+06
  0.14467E+06  0.15292E+06  0.16364E+06  0.17766E+06  0.19614E+06  0.22073E+06
  0.25378E+06  0.29869E+06  0.40864E+04  0.40850E+04  0.40828E+04  0.40791E+04
  0.40727E+04  0.40629E+04  0.40475E+04  0.40238E+04  0.39848E+04  0.39234E+04
  0.38224E+04  0.36761E+04  0.34731E+04  0.31336E+04  0.26231E+04  0.19980E+04
  0.11433E+04  0.57263E+02  0.45955E+04  0.10036E+05  0.18422E+05  0.28934E+05
  0.39494E+05  0.54331E+05  0.71396E+05  0.86515E+05  0.10611E+06  0.12606E+06
  0.14647E+06  0.16315E+06  0.17836E+06  0.18555E+06  0.18907E+06  0.21058E+06
  0.21681E+06  0.22479E+06  0.23504E+06  0.24828E+06  0.26548E+06  0.28798E+06
  0.31762E+06  0.35703E+06  0.40997E+06  0.65373E+04  0.65350E+04  0.65315E+04
  0.65255E+04  0.65150E+04  0.64992E+04  0.64745E+04  0.64363E+04  0.63737E+04
  0.62751E+04  0.61130E+04  0.58785E+04  0.55534E+04  0.50099E+04  0.41930E+04
  0.31931E+04  0.18266E+04  0.91455E+02  0.74797E+04  0.16332E+05  0.29970E+05
  0.47056E+05  0.64202E+05  0.88276E+05  0.11593E+06  0.14036E+06  0.17197E+06
  0.20403E+06  0.23668E+06  0.26309E+06  0.28690E+06  0.29751E+06  0.30197E+06
  0.33469E+06  0.34253E+06  0.35254E+06  0.36535E+06  0.38181E+06  0.40308E+06
  0.43068E+06  0.46678E+06  0.51431E+06  0.57748E+06  0.00000E+00  0.00000E+00
  0.00000E+00  0.00000E+00  0.00000E+00  0.00000E+00  0.00000E+00  0.00000E+00
  0.00000E+00  0.00000E+00  0.00000E+00  0.00000E+00  0.00000E+00  0.00000E+00
  0.00000E+00  0.00000E+00  0.00000E+00  0.00000E+00  0.00000E+00  0.00000E+00
  0.00000E+00  0.00000E+00  0.00000E+00  0.00000E+00  0.00000E+00  0.00000E+00
  0.00000E+00  0.00000E+00  0.00000E+00  0.00000E+00  0.00000E+00  0.00000E+00
  0.00000E+00  0.72587E+03  0.11520E+04  0.18284E+04  0.29020E+04  0.46059E+04
  0.73112E+04  0.11605E+05  0.18422E+05  0.29240E+05  0.46414E+05  0.00000E+00
  0.00000E+00  0.00000E+00  0.00000E+00  0.00000E+00  0.00000E+00  0.00000E+00
  0.00000E+00  0.00000E+00  0.00000E+00  0.00000E+00  0.00000E+00  0.00000E+00
  0.00000E+00  0.00000E+00  0.00000E+00  0.00000E+00  0.00000E+00  0.00000E+00
  0.00000E+00  0.00000E+00  0.00000E+00  0.00000E+00  0.00000E+00  0.00000E+00
  0.00000E+00  0.00000E+00  0.00000E+00  0.00000E+00  0.00000E+00  0.00000E+00
  0.00000E+00  0.00000E+00  0.72605E+03  0.11522E+04  0.18287E+04  0.29023E+04
  0.46063E+04  0.73117E+04  0.11606E+05  0.18422E+05  0.29241E+05  0.46415E+05
  0.00000E+00  0.00000E+00  0.00000E+00  0.00000E+00  0.00000E+00  0.00000E+00
  0.00000E+00  0.00000E+00  0.00000E+00  0.00000E+00  0.89462E-11  0.70341E-09
  0.35252E-08  0.13908E-07  0.50361E-07  0.15857E-06  0.47793E-06  0.13460E-05
  0.28297E-05  0.57743E-05  0.12410E-04  0.26436E-04  0.53577E-04  0.11247E-03
  0.23252E-03  0.43461E-03  0.81755E-03  0.15002E-02  0.27028E-02  0.46857E-02
  0.79757E-02  0.12940E-01  0.20530E-01  0.72628E+03  0.11525E+04  0.18290E+04
  0.29028E+04  0.46069E+04  0.73124E+04  0.11607E+05  0.18424E+05  0.29242E+05
  0.46417E+05  0.00000E+00  0.00000E+00  0.00000E+00  0.00000E+00  0.00000E+00
  0.00000E+00  0.00000E+00  0.00000E+00  0.00000E+00  0.00000E+00  0.86446E-08
  0.66998E-06  0.33158E-05  0.12945E-04  0.46460E-04  0.14522E-03  0.43504E-03
  0.12192E-02  0.25531E-02  0.51930E-02  0.11132E-01  0.23665E-01  0.47882E-01
  0.10038E+00  0.20731E+00  0.38717E+00  0.72781E+00  0.13349E+01  0.24039E+01
  0.41659E+01  0.70891E+01  0.11499E+02  0.18241E+02  0.72665E+03  0.11530E+04
  0.18296E+04  0.29035E+04  0.46078E+04  0.73135E+04  0.11608E+05  0.18425E+05
  0.29244E+05  0.46419E+05  0.00000E+00  0.00000E+00  0.00000E+00  0.00000E+00
  0.00000E+00  0.00000E+00  0.00000E+00  0.00000E+00  0.00000E+00  0.00000E+00
  0.22347E-07  0.17016E-05  0.82910E-05  0.31942E-04  0.11336E-03  0.35101E-03
  0.10434E-02  0.29056E-02  0.60530E-02  0.12261E-01  0.26194E-01  0.55534E-01
  0.11212E+00  0.23464E+00  0.48393E+00  0.90275E+00  0.16956E+01  0.31075E+01
  0.55931E+01  0.96888E+01  0.16481E+02  0.26726E+02  0.42387E+02  0.72713E+03
  0.11536E+04  0.18304E+04  0.29044E+04  0.46089E+04  0.73149E+04  0.11610E+05
  0.18427E+05  0.29247E+05  0.46422E+05  0.00000E+00  0.00000E+00  0.00000E+00
  0.00000E+00  0.00000E+00  0.00000E+00  0.00000E+00  0.00000E+00  0.00000E+00
  0.00000E+00  0.76633E-07  0.57171E-05  0.27347E-04  0.10515E-03  0.36288E-03
  0.11105E-02  0.32688E-02  0.90304E-02  0.18728E-01  0.37795E-01  0.80386E-01
  0.16981E+00  0.34154E+00  0.71112E+00  0.14639E+01  0.27269E+01  0.51158E+01
  0.93673E+01  0.16847E+02  0.29167E+02  0.49593E+02  0.80388E+02  0.12746E+03
  0.72777E+03  0.11544E+04  0.18313E+04  0.29057E+04  0.46104E+04  0.73168E+04
  0.11612E+05  0.18430E+05  0.29250E+05  0.46426E+05  0.00000E+00  0.00000E+00
  0.00000E+00  0.00000E+00  0.00000E+00  0.00000E+00  0.00000E+00  0.00000E+00
  0.00000E+00  0.00000E+00  0.14003E-06  0.10499E-04  0.49960E-04  0.19063E-03
  0.65160E-03  0.19730E-02  0.57522E-02  0.15757E-01  0.32457E-01  0.65108E-01
  0.13770E+00  0.28947E+00  0.58008E+00  0.12059E+01  0.24771E+01  0.46059E+01
  0.86286E+01  0.15781E+02  0.28357E+02  0.49058E+02  0.83364E+02  0.13507E+03
  0.21406E+03  0.72836E+03  0.11550E+04  0.18320E+04  0.29063E+04  0.46108E+04
  0.73167E+04  0.11611E+05  0.18427E+05  0.29244E+05  0.46415E+05  0.00000E+00
  0.00000E+00  0.00000E+00  0.00000E+00  0.00000E+00  0.00000E+00  0.00000E+00
  0.00000E+00  0.00000E+00  0.00000E+00  0.20038E-06  0.15008E-04  0.70625E-04
  0.26594E-03  0.89587E-03  0.26732E-02  0.76922E-02  0.20831E-01  0.42483E-01
  0.84514E-01  0.17757E+00  0.37129E+00  0.74067E+00  0.15337E+01  0.31412E+01
  0.58267E+01  0.10895E+02  0.19895E+02  0.35705E+02  0.61709E+02  0.10478E+03
  0.16965E+03  0.26874E+03  0.72929E+03  0.11561E+04  0.18333E+04  0.29077E+04
  0.46123E+04  0.73181E+04  0.11612E+05  0.18427E+05  0.29242E+05  0.46410E+05
  0.00000E+00  0.00000E+00  0.00000E+00  0.00000E+00  0.00000E+00  0.00000E+00
  0.00000E+00  0.00000E+00  0.00000E+00  0.00000E+00  0.25889E-06  0.20648E-04
  0.98943E-04  0.37403E-03  0.12523E-02  0.36934E-02  0.10499E-01  0.28097E-01
  0.56686E-01  0.11171E+00  0.23294E+00  0.48397E+00  0.96019E+00  0.19792E+01
  0.40388E+01  0.74691E+01  0.13932E+02  0.25393E+02  0.45502E+02  0.78542E+02
