  0.00000E+00  0.23480E-02  0.47319E-02  0.71615E-02  0.96507E-02  0.12228E-01
  0.14914E-01  0.17737E-01  0.20726E-01  0.23905E-01  0.27243E-01  0.30700E-01
  0.33932E-01  0.36564E-01  0.38222E-01  0.36022E-01  0.31509E-01  0.22629E-01
  0.00000E+00  0.40092E-01  0.12478E+00  0.28254E+00  0.59091E+00  0.12033E+01
  0.23410E+01  0.44422E+01  0.84529E+01  0.15963E+02  0.32090E+02  0.61798E+02
  0.12535E+03  0.22766E+03  0.41177E+03  0.75231E+03  0.13401E+04  0.24934E+04
  0.46845E+04  0.89114E+04  0.17244E+05  0.34197E+05  0.70467E+05  0.12109E+06
  0.20796E+06  0.00000E+00  0.53648E-02  0.10784E-01  0.16292E-01  0.21899E-01
  0.27645E-01  0.33571E-01  0.39727E-01  0.46142E-01  0.52854E-01  0.59803E-01
  0.66898E-01  0.73567E-01  0.79229E-01  0.83470E-01  0.81053E-01  0.76519E-01
  0.69890E-01  0.40252E-01  0.00000E+00  0.83781E-01  0.23911E+00  0.53583E+00
  0.11192E+01  0.22004E+01  0.41640E+01  0.79040E+01  0.14905E+02  0.30041E+02
  0.57936E+02  0.11796E+03  0.21510E+03  0.39037E+03  0.71526E+03  0.12754E+04
  0.23807E+04  0.44864E+04  0.85594E+04  0.16608E+05  0.33022E+05  0.68212E+05
  0.11750E+06  0.20223E+06  0.00000E+00  0.11598E-01  0.23287E-01  0.35111E-01
  0.47089E-01  0.59306E-01  0.71806E-01  0.84631E-01  0.97878E-01  0.11156E+00
  0.12554E+00  0.13967E+00  0.15293E+00  0.16450E+00  0.17390E+00  0.17058E+00
  0.16562E+00  0.15981E+00  0.12552E+00  0.83952E-01  0.00000E+00  0.15017E+00
  0.43095E+00  0.97661E+00  0.19880E+01  0.37843E+01  0.72020E+01  0.13605E+02
  0.27596E+02  0.53404E+02  0.10939E+03  0.20064E+03  0.36583E+03  0.67290E+03
  0.12016E+04  0.22521E+04  0.42605E+04  0.81582E+04  0.15884E+05  0.31683E+05
  0.65640E+05  0.11340E+06  0.19569E+06  0.00000E+00  0.24073E-01  0.48305E-01
  0.72688E-01  0.97368E-01  0.12238E+00  0.14782E+00  0.17376E+00  0.20023E+00
  0.22732E+00  0.25472E+00  0.28207E+00  0.30766E+00  0.33002E+00  0.34872E+00
  0.34192E+00  0.33400E+00  0.32803E+00  0.28366E+00  0.23957E+00  0.14988E+00
  0.00000E+00  0.26912E+00  0.78165E+00  0.17309E+01  0.33643E+01  0.64683E+01
  0.12290E+02  0.25180E+02  0.48967E+02  0.10105E+03  0.18661E+03  0.34201E+03
  0.63169E+03  0.11294E+04  0.21261E+04  0.40387E+04  0.77631E+04  0.15169E+05
  0.30358E+05  0.63091E+05  0.10933E+06  0.18920E+06  0.00000E+00  0.50139E-01
  0.10053E+00  0.15113E+00  0.20219E+00  0.25375E+00  0.30593E+00  0.35879E+00
  0.41241E+00  0.46664E+00  0.52104E+00  0.57472E+00  0.62458E+00  0.66805E+00
  0.70444E+00  0.68569E+00  0.66828E+00  0.65575E+00  0.59091E+00  0.53583E+00
  0.43095E+00  0.10781E+01  0.00000E+00  0.49050E+00  0.13937E+01  0.28745E+01
  0.56818E+01  0.10951E+02  0.22817E+02  0.44691E+02  0.93093E+02  0.17327E+03
  0.31936E+03  0.59233E+03  0.10599E+04  0.20043E+04  0.38233E+04  0.73781E+04
  0.14470E+05  0.29057E+05  0.60579E+05  0.10531E+06  0.18278E+06  0.00000E+00
  0.10668E+00  0.21377E+00  0.32119E+00  0.42920E+00  0.53793E+00  0.64768E+00
  0.75819E+00  0.86958E+00  0.98168E+00  0.10929E+01  0.12016E+01  0.13018E+01
  0.13886E+01  0.14607E+01  0.14037E+01  0.13551E+01  0.13208E+01  0.12033E+01
  0.11192E+01  0.97661E+00  0.78165E+00  0.49050E+00  0.00000E+00  0.88531E+00
  0.22287E+01  0.47627E+01  0.95182E+01  0.20468E+02  0.40580E+02  0.85615E+02
  0.16088E+03  0.29832E+03  0.55558E+03  0.99418E+03  0.18885E+04  0.36173E+04
  0.70074E+04  0.13792E+05  0.27791E+05  0.58121E+05  0.10137E+06  0.17648E+06
  0.00000E+00  0.21009E+00  0.42078E+00  0.63190E+00  0.84383E+00  0.10567E+01
  0.12711E+01  0.14861E+01  0.17019E+01  0.19180E+01  0.21313E+01  0.23384E+01
  0.25284E+01  0.26926E+01  0.28285E+01  0.27170E+01  0.26197E+01  0.25462E+01
  0.23410E+01  0.22004E+01  0.19880E+01  0.17309E+01  0.13937E+01  0.88531E+00
  0.00000E+00  0.11962E+01  0.34413E+01  0.76654E+01  0.17721E+02  0.36104E+02
  0.77909E+02  0.14851E+03  0.27770E+03  0.51986E+03  0.93017E+03  0.17758E+04
  0.34167E+04  0.66459E+04  0.13130E+05  0.26548E+05  0.55702E+05  0.97491E+05
  0.17025E+06  0.00000E+00  0.41005E+00  0.82100E+00  0.12324E+01  0.16448E+01
  0.20585E+01  0.24740E+01  0.28897E+01  0.33054E+01  0.37198E+01  0.41265E+01
  0.45187E+01  0.48763E+01  0.51822E+01  0.54319E+01  0.52058E+01  0.50014E+01
  0.48333E+01  0.44422E+01  0.41640E+01  0.37843E+01  0.33643E+01  0.28745E+01
  0.22287E+01  0.11962E+01  0.00000E+00  0.21733E+01  0.62018E+01  0.16023E+02
  0.33683E+02  0.74160E+02  0.14278E+03  0.26795E+03  0.50191E+03  0.89480E+03
  0.17107E+04  0.32958E+04  0.64195E+04  0.12701E+05  0.25720E+05  0.54049E+05
  0.94807E+05  0.16590E+06  0.00000E+00  0.79464E+00  0.15906E+01  0.23869E+01
  0.31846E+01  0.39836E+01  0.47848E+01  0.55848E+01  0.63828E+01  0.71755E+01
  0.79509E+01  0.86953E+01  0.93713E+01  0.99468E+01  0.10413E+02  0.99671E+01
  0.95545E+01  0.91966E+01  0.84529E+01  0.79040E+01  0.72020E+01  0.64683E+01
  0.56818E+01  0.47627E+01  0.34413E+01  0.21733E+01  0.00000E+00  0.39163E+01
  0.13730E+02  0.30935E+02  0.70661E+02  0.13816E+03  0.26054E+03  0.48810E+03
  0.86557E+03  0.16557E+04  0.31911E+04  0.62187E+04  0.12312E+05  0.24955E+05
  0.52496E+05  0.92266E+05  0.16176E+06  0.00000E+00  0.15153E+01  0.30327E+01
  0.45499E+01  0.60686E+01  0.75886E+01  0.91110E+01  0.10629E+02  0.12141E+02
  0.13639E+02  0.15101E+02  0.16501E+02  0.17770E+02  0.18850E+02  0.19722E+02
  0.18872E+02  0.18072E+02  0.17352E+02  0.15963E+02  0.14905E+02  0.13605E+02
  0.12290E+02  0.10951E+02  0.95182E+01  0.76654E+01  0.62018E+01  0.39163E+01
  0.00000E+00  0.10102E+02  0.27159E+02  0.66814E+02  0.13420E+03  0.25521E+03
  0.47842E+03  0.84268E+03  0.16116E+04  0.31044E+04  0.60468E+04  0.11969E+05
  0.24262E+05  0.51058E+05  0.89893E+05  0.15785E+06  0.00000E+00  0.30291E+01
  0.60614E+01  0.90924E+01  0.12125E+02  0.15158E+02  0.18194E+02  0.21218E+02
  0.24226E+02  0.27205E+02  0.30109E+02  0.32890E+02  0.35419E+02  0.37585E+02
  0.39353E+02  0.37716E+02  0.36157E+02  0.34724E+02  0.32090E+02  0.30041E+02
  0.27596E+02  0.25180E+02  0.22817E+02  0.20468E+02  0.17721E+02  0.16023E+02
  0.13730E+02  0.10102E+02  0.00000E+00  0.16164E+02  0.54717E+02  0.12081E+03
  0.23826E+03  0.45297E+03  0.79513E+03  0.15297E+04  0.29560E+04  0.57695E+04
  0.11438E+05  0.23219E+05  0.48935E+05  0.86422E+05  0.15218E+06  0.00000E+00
  0.58066E+01  0.11618E+02  0.17426E+02  0.23235E+02  0.29042E+02  0.34852E+02
  0.40635E+02  0.46384E+02  0.52072E+02  0.57617E+02  0.62925E+02  0.67768E+02
  0.71938E+02  0.75370E+02  0.72327E+02  0.69399E+02  0.66661E+02  0.61798E+02
  0.57936E+02  0.53404E+02  0.48967E+02  0.44691E+02  0.40580E+02  0.36104E+02
  0.33683E+02  0.30935E+02  0.27159E+02  0.16164E+02  0.00000E+00  0.39241E+02
  0.10660E+03  0.22413E+03  0.43580E+03  0.76280E+03  0.14768E+04  0.28598E+04
  0.55831E+04  0.11065E+05  0.22453E+05  0.47311E+05  0.83725E+05  0.14772E+06
  0.00000E+00  0.11623E+02  0.23254E+02  0.34875E+02  0.46495E+02  0.58109E+02
  0.69724E+02  0.81282E+02  0.92768E+02  0.10413E+03  0.11522E+03  0.12585E+03
  0.13559E+03  0.14407E+03  0.15116E+03  0.14539E+03  0.13980E+03  0.13451E+03
  0.12535E+03  0.11796E+03  0.10939E+03  0.10105E+03  0.93093E+02  0.85615E+02
  0.77909E+02  0.74160E+02  0.70661E+02  0.66814E+02  0.54717E+02  0.39241E+02
  0.00000E+00  0.68061E+02  0.18404E+03  0.38901E+03  0.69095E+03  0.13727E+04
  0.26913E+04  0.52859E+04  0.10507E+05  0.21357E+05  0.45051E+05  0.80023E+05
  0.14164E+06  0.00000E+00  0.20798E+02  0.41610E+02  0.62401E+02  0.83189E+02
  0.10396E+03  0.12473E+03  0.14540E+03  0.16594E+03  0.18627E+03  0.20612E+03
  0.22519E+03  0.24277E+03  0.25822E+03  0.27132E+03  0.26159E+03  0.25212E+03
  0.24308E+03  0.22766E+03  0.21510E+03  0.20064E+03  0.18661E+03  0.17327E+03
  0.16088E+03  0.14851E+03  0.14278E+03  0.13816E+03  0.13420E+03  0.12081E+03
  0.10660E+03  0.68061E+02  0.00000E+00  0.11298E+03  0.30869E+03  0.58028E+03
  0.12250E+04  0.24730E+04  0.49311E+04  0.98824E+04  0.20182E+05  0.42699E+05
  0.76228E+05  0.13547E+06  0.00000E+00  0.37125E+02  0.74271E+02  0.11138E+03
  0.14848E+03  0.18554E+03  0.22261E+03  0.25948E+03  0.29613E+03  0.33241E+03
  0.36787E+03  0.40200E+03  0.43362E+03  0.46165E+03  0.48571E+03  0.46928E+03
  0.45322E+03  0.43778E+03  0.41177E+03  0.39037E+03  0.36583E+03  0.34201E+03
  0.31936E+03  0.29832E+03  0.27770E+03  0.26795E+03  0.26054E+03  0.25521E+03
  0.23826E+03  0.22413E+03  0.18404E+03  0.11298E+03  0.00000E+00  0.18952E+03
  0.43020E+03  0.10441E+04  0.22319E+04  0.45707E+04  0.92806E+04  0.19078E+05
  0.40501E+05  0.72705E+05  0.12976E+06  0.00000E+00  0.67036E+02  0.13411E+03
  0.20111E+03  0.26808E+03  0.33500E+03  0.40190E+03  0.46847E+03  0.53463E+03
  0.60015E+03  0.66423E+03  0.72604E+03  0.78354E+03  0.83490E+03  0.87947E+03
  0.85129E+03  0.82366E+03  0.79690E+03  0.75231E+03  0.71526E+03  0.67290E+03
  0.63169E+03  0.59233E+03  0.55558E+03  0.51986E+03  0.50191E+03  0.48810E+03
  0.47842E+03  0.45297E+03  0.43580E+03  0.38901E+03  0.30869E+03  0.18952E+03
  0.00000E+00  0.20985E+03  0.80393E+03  0.19483E+04  0.41947E+04  0.87071E+04
  0.18075E+05  0.38526E+05  0.69580E+05  0.12469E+06  0.00000E+00  0.11879E+03
  0.23765E+03  0.35637E+03  0.47503E+03  0.59359E+03  0.71211E+03  0.83003E+03
  0.94723E+03  0.10633E+04  0.11769E+04  0.12865E+04  0.13887E+04  0.14803E+04
  0.15602E+04  0.15116E+04  0.14638E+04  0.14171E+04  0.13401E+04  0.12754E+04
  0.12016E+04  0.11294E+04  0.10599E+04  0.99418E+03  0.93017E+03  0.89480E+03
  0.86557E+03  0.84268E+03  0.79513E+03  0.76280E+03  0.69095E+03  0.58028E+03
  0.43020E+03  0.20985E+03  0.00000E+00  0.63621E+03  0.18321E+04  0.41373E+04
  0.87028E+04  0.18076E+05  0.38353E+05  0.69247E+05  0.12394E+06  0.00000E+00
  0.21820E+03  0.43650E+03  0.65454E+03  0.87248E+03  0.10902E+04  0.13079E+04
  0.15245E+04  0.17398E+04  0.19532E+04  0.21621E+04  0.23642E+04  0.25535E+04
  0.27246E+04  0.28753E+04  0.27912E+04  0.27081E+04  0.26268E+04  0.24934E+04
  0.23807E+04  0.22521E+04  0.21261E+04  0.20043E+04  0.18885E+04  0.17758E+04
  0.17107E+04  0.16557E+04  0.16116E+04  0.15297E+04  0.14768E+04  0.13727E+04
  0.12250E+04  0.10441E+04  0.80393E+03  0.63621E+03  0.00000E+00  0.11752E+04
  0.34157E+04  0.78182E+04  0.16802E+05  0.36140E+05  0.66019E+05  0.11895E+06
  0.00000E+00  0.40484E+03  0.80986E+03  0.12144E+04  0.16187E+04  0.20227E+04
  0.24266E+04  0.28285E+04  0.32282E+04  0.36243E+04  0.40128E+04  0.43893E+04
  0.47434E+04  0.50657E+04  0.53526E+04  0.52057E+04  0.50604E+04  0.49176E+04
  0.46845E+04  0.44864E+04  0.42605E+04  0.40387E+04  0.38233E+04  0.36173E+04
  0.34167E+04  0.32958E+04  0.31911E+04  0.31044E+04  0.29560E+04  0.28598E+04
  0.26913E+04  0.24730E+04  0.22319E+04  0.19483E+04  0.18321E+04  0.11752E+04
  0.00000E+00  0.21980E+04  0.64629E+04  0.15088E+05  0.33516E+05  0.62515E+05
  0.11387E+06  0.00000E+00  0.76091E+03  0.15222E+04  0.22825E+04  0.30425E+04
  0.38018E+04  0.45609E+04  0.53165E+04  0.60680E+04  0.68134E+04  0.75451E+04
  0.82554E+04  0.89263E+04  0.95413E+04  0.10094E+05  0.98341E+04  0.95770E+04
  0.93235E+04  0.89114E+04  0.85594E+04  0.81582E+04  0.77631E+04  0.73781E+04
  0.70074E+04  0.66459E+04  0.64195E+04  0.62187E+04  0.60468E+04  0.57695E+04
  0.55831E+04  0.52859E+04  0.49311E+04  0.45707E+04  0.41947E+04  0.41373E+04
  0.34157E+04  0.21980E+04  0.00000E+00  0.41714E+04  0.12485E+05  0.30052E+05
  0.58381E+05  0.10847E+06  0.00000E+00  0.14556E+04  0.29118E+04  0.43663E+04
  0.58201E+04  0.72726E+04  0.87249E+04  0.10171E+05  0.11609E+05  0.13036E+05
  0.14439E+05  0.15803E+05  0.17096E+05  0.18290E+05  0.19370E+05  0.18904E+05
  0.18442E+05  0.17984E+05  0.17244E+05  0.16608E+05  0.15884E+05  0.15169E+05
  0.14470E+05  0.13792E+05  0.13130E+05  0.12701E+05  0.12312E+05  0.11969E+05
  0.11438E+05  0.11065E+05  0.10507E+05  0.98824E+04  0.92806E+04  0.87071E+04
  0.87028E+04  0.78182E+04  0.64629E+04  0.41714E+04  0.00000E+00  0.80988E+04
  0.24901E+05  0.52913E+05  0.10224E+06  0.00000E+00  0.28553E+04  0.57120E+04
  0.85651E+04  0.11417E+05  0.14266E+05  0.17116E+05  0.19952E+05  0.22775E+05
  0.25578E+05  0.28335E+05  0.31022E+05  0.33578E+05  0.35950E+05  0.38114E+05
  0.37257E+05  0.36405E+05  0.35561E+05  0.34197E+05  0.33022E+05  0.31683E+05
  0.30358E+05  0.29057E+05  0.27791E+05  0.26548E+05  0.25720E+05  0.24955E+05
  0.24262E+05  0.23219E+05  0.22453E+05  0.21357E+05  0.20182E+05  0.19078E+05
  0.18075E+05  0.18076E+05  0.16802E+05  0.15088E+05  0.12485E+05  0.80988E+04
  0.00000E+00  0.16250E+05  0.44569E+05  0.94021E+05  0.00000E+00  0.58236E+04
  0.11650E+05  0.17469E+05  0.23286E+05  0.29097E+05  0.34909E+05  0.40696E+05
  0.46457E+05  0.52180E+05  0.57814E+05  0.63313E+05  0.68563E+05  0.73462E+05
  0.77965E+05  0.76326E+05  0.74695E+05  0.73076E+05  0.70467E+05  0.68212E+05
  0.65640E+05  0.63091E+05  0.60579E+05  0.58121E+05  0.55702E+05  0.54049E+05
  0.52496E+05  0.51058E+05  0.48935E+05  0.47311E+05  0.45051E+05  0.42699E+05
  0.40501E+05  0.38526E+05  0.38353E+05  0.36140E+05  0.33516E+05  0.30052E+05
  0.24901E+05  0.16250E+05  0.00000E+00  0.29884E+05  0.81156E+05  0.00000E+00
  0.99081E+04  0.19821E+05  0.29721E+05  0.39618E+05  0.49507E+05  0.59396E+05
  0.69246E+05  0.79053E+05  0.88801E+05  0.98406E+05  0.10780E+06  0.11679E+06
  0.12523E+06  0.13303E+06  0.13042E+06  0.12783E+06  0.12525E+06  0.12109E+06
  0.11750E+06  0.11340E+06  0.10933E+06  0.10531E+06  0.10137E+06  0.97491E+05
  0.94807E+05  0.92266E+05  0.89893E+05  0.86422E+05  0.83725E+05  0.80023E+05
  0.76228E+05  0.72705E+05  0.69580E+05  0.69247E+05  0.66019E+05  0.62515E+05
  0.58381E+05  0.52913E+05  0.44569E+05  0.29884E+05  0.00000E+00  0.50842E+05
  0.00000E+00  0.16857E+05  0.33722E+05  0.50567E+05  0.67405E+05  0.84231E+05
  0.10106E+06  0.11782E+06  0.13452E+06  0.15112E+06  0.16749E+06  0.18353E+06
  0.19893E+06  0.21344E+06  0.22695E+06  0.22281E+06  0.21868E+06  0.21457E+06
  0.20796E+06  0.20223E+06  0.19569E+06  0.18920E+06  0.18278E+06  0.17648E+06
  0.17025E+06  0.16590E+06  0.16176E+06  0.15785E+06  0.15218E+06  0.14772E+06
  0.14164E+06  0.13547E+06  0.12976E+06  0.12469E+06  0.12394E+06  0.11895E+06
  0.11387E+06  0.10847E+06  0.10224E+06  0.94021E+05  0.81156E+05  0.50842E+05
  0.00000E+00  0.00000E+00  0.00000E+00  0.00000E+00  0.00000E+00  0.00000E+00
  0.00000E+00  0.00000E+00  0.00000E+00  0.00000E+00  0.00000E+00  0.00000E+00
  0.00000E+00  0.00000E+00  0.00000E+00  0.00000E+00  0.00000E+00  0.00000E+00
  0.00000E+00  0.00000E+00  0.00000E+00  0.00000E+00  0.00000E+00  0.00000E+00
  0.00000E+00  0.00000E+00  0.00000E+00  0.00000E+00  0.00000E+00  0.00000E+00
  0.00000E+00  0.00000E+00  0.00000E+00  0.00000E+00  0.00000E+00  0.00000E+00
  0.00000E+00  0.00000E+00  0.00000E+00  0.00000E+00  0.00000E+00  0.00000E+00
  0.00000E+00  0.00000E+00  0.00000E+00  0.00000E+00  0.00000E+00  0.00000E+00
  0.00000E+00  0.00000E+00  0.00000E+00  0.00000E+00  0.00000E+00  0.00000E+00
  0.00000E+00  0.00000E+00  0.00000E+00  0.00000E+00  0.00000E+00  0.18563E-03
  0.50128E-03  0.11636E-02  0.27678E-02  0.63039E-02  0.13778E-01  0.28896E-01
  0.61045E-01  0.13066E+00  0.25731E+00  0.50220E+00  0.97324E+00  0.18559E+01
  0.37099E+01  0.71117E+01  0.14235E+02  0.25472E+02  0.45468E+02  0.82103E+02
  0.14549E+03  0.26723E+03  0.49582E+03  0.93192E+03  0.17827E+04  0.34971E+04
  0.71324E+04  0.12135E+05  0.20646E+05  0.00000E+00  0.00000E+00  0.00000E+00
  0.00000E+00  0.00000E+00  0.00000E+00  0.00000E+00  0.00000E+00  0.00000E+00
  0.00000E+00  0.00000E+00  0.00000E+00  0.00000E+00  0.00000E+00  0.00000E+00
  0.37744E-03  0.10156E-02  0.23505E-02  0.55780E-02  0.12678E-01  0.27663E-01
  0.57983E-01  0.12232E+00  0.26181E+00  0.51535E+00  0.10055E+01  0.19481E+01
  0.37142E+01  0.74237E+01  0.14230E+02  0.28480E+02  0.50961E+02  0.90963E+02
  0.16425E+03  0.29106E+03  0.53460E+03  0.99187E+03  0.18643E+04  0.35662E+04
  0.69957E+04  0.14268E+05  0.24275E+05  0.41301E+05  0.00000E+00  0.00000E+00
  0.00000E+00  0.00000E+00  0.00000E+00  0.00000E+00  0.00000E+00  0.00000E+00
  0.00000E+00  0.00000E+00  0.00000E+00  0.00000E+00  0.00000E+00  0.00000E+00
  0.00000E+00  0.57766E-03  0.15471E-02  0.35652E-02  0.84371E-02  0.19143E-01
  0.41710E-01  0.87273E-01  0.18402E+00  0.39338E+00  0.77392E+00  0.15094E+01
  0.29234E+01  0.55724E+01  0.11136E+02  0.21342E+02  0.42713E+02  0.76426E+02
  0.13641E+03  0.24631E+03  0.43646E+03  0.80164E+03  0.14873E+04  0.27955E+04
  0.53476E+04  0.10490E+05  0.21395E+05  0.36401E+05  0.61932E+05  0.00000E+00
  0.00000E+00  0.00000E+00  0.00000E+00  0.00000E+00  0.00000E+00  0.00000E+00
  0.00000E+00  0.00000E+00  0.00000E+00  0.00000E+00  0.00000E+00  0.00000E+00
  0.00000E+00  0.00000E+00  0.78948E-03  0.21027E-02  0.48234E-02  0.11376E-01
  0.25734E-01  0.55939E-01  0.11688E+00  0.24620E+00  0.52566E+00  0.10335E+01
  0.20145E+01  0.39003E+01  0.74325E+01  0.14850E+02  0.28457E+02  0.56945E+02
  0.10189E+03  0.18185E+03  0.32833E+03  0.58180E+03  0.10686E+04  0.19826E+04
  0.37263E+04  0.71281E+04  0.13983E+05  0.28519E+05  0.48522E+05  0.82554E+05
  0.00000E+00  0.00000E+00  0.00000E+00  0.00000E+00  0.00000E+00  0.00000E+00
  0.00000E+00  0.00000E+00  0.00000E+00  0.00000E+00  0.00000E+00  0.00000E+00
  0.00000E+00  0.00000E+00  0.00000E+00  0.10168E-02  0.26901E-02  0.61367E-02
  0.14414E-01  0.32489E-01  0.70452E-01  0.14688E+00  0.30899E+00  0.65883E+00
  0.12942E+01  0.25211E+01  0.48789E+01  0.92941E+01  0.18565E+02  0.35569E+02
  0.71169E+02  0.12733E+03  0.22725E+03  0.41029E+03  0.72700E+03  0.13352E+04
  0.24773E+04  0.46562E+04  0.89071E+04  0.17473E+05  0.35637E+05  0.60633E+05
  0.10316E+06  0.00000E+00  0.00000E+00  0.00000E+00  0.00000E+00  0.00000E+00
  0.00000E+00  0.00000E+00  0.00000E+00  0.00000E+00  0.00000E+00  0.00000E+00
  0.00000E+00  0.00000E+00  0.00000E+00  0.00000E+00  0.12643E-02  0.33192E-02
  0.75215E-02  0.17580E-01  0.39456E-01  0.85280E-01  0.17744E+00  0.37243E+00
  0.79325E+00  0.15567E+01  0.30300E+01  0.58601E+01  0.11159E+02  0.22283E+02
  0.42684E+02  0.85394E+02  0.15277E+03  0.27263E+03  0.49223E+03  0.87215E+03
  0.16018E+04  0.29719E+04  0.55859E+04  0.10686E+05  0.20962E+05  0.42755E+05
  0.72745E+05  0.12377E+06  0.00000E+00  0.00000E+00  0.00000E+00  0.00000E+00
  0.00000E+00  0.00000E+00  0.00000E+00  0.00000E+00  0.00000E+00  0.00000E+00
  0.00000E+00  0.00000E+00  0.00000E+00  0.00000E+00  0.00000E+00  0.15373E-02
  0.40008E-02  0.89934E-02  0.20908E-01  0.46672E-01  0.10054E+00  0.20855E+00
  0.43680E+00  0.92858E+00  0.18201E+01  0.35391E+01  0.68399E+01  0.13018E+02
  0.25987E+02  0.49767E+02  0.99550E+02  0.17808E+03  0.31780E+03  0.57376E+03
  0.10166E+04  0.18671E+04  0.34642E+04  0.65113E+04  0.12456E+05  0.24437E+05
  0.49843E+05  0.84808E+05  0.14430E+06  0.00000E+00  0.00000E+00  0.00000E+00
  0.00000E+00  0.00000E+00  0.00000E+00  0.00000E+00  0.00000E+00  0.00000E+00
  0.00000E+00  0.00000E+00  0.00000E+00  0.00000E+00  0.00000E+00  0.00000E+00
  0.18409E-02  0.47464E-02  0.10576E-01  0.24426E-01  0.54212E-01  0.11627E+00
  0.24034E+00  0.50209E+00  0.10650E+01  0.20844E+01  0.40483E+01  0.78173E+01
  0.14869E+02  0.29671E+02  0.56808E+02  0.11362E+03  0.20324E+03  0.36269E+03
  0.65479E+03  0.11601E+04  0.21308E+04  0.39537E+04  0.74317E+04  0.14218E+05
  0.27894E+05  0.56898E+05  0.96820E+05  0.16475E+06  0.00000E+00  0.00000E+00
  0.00000E+00  0.00000E+00  0.00000E+00  0.00000E+00  0.00000E+00  0.00000E+00
  0.00000E+00  0.00000E+00  0.00000E+00  0.00000E+00  0.00000E+00  0.00000E+00
  0.00000E+00  0.21782E-02  0.55647E-02  0.12281E-01  0.28174E-01  0.62103E-01
  0.13251E+00  0.27284E+00  0.56812E+00  0.12023E+01  0.23491E+01  0.45558E+01
  0.87882E+01  0.16704E+02  0.33319E+02  0.63774E+02  0.12754E+03  0.22813E+03
  0.40712E+03  0.73503E+03  0.13023E+04  0.23921E+04  0.44389E+04  0.83447E+04
  0.15966E+05  0.31327E+05  0.63908E+05  0.10876E+06  0.18508E+06  0.00000E+00
  0.00000E+00  0.00000E+00  0.00000E+00  0.00000E+00  0.00000E+00  0.00000E+00
  0.00000E+00  0.00000E+00  0.00000E+00  0.00000E+00  0.00000E+00  0.00000E+00
  0.00000E+00  0.00000E+00  0.25376E-02  0.64387E-02  0.14083E-01  0.32113E-01
  0.70271E-01  0.14913E+00  0.30576E+00  0.63436E+00  0.13385E+01  0.26103E+01
  0.50539E+01  0.97379E+01  0.18495E+02  0.36876E+02  0.70566E+02  0.14111E+03
  0.25244E+03  0.45054E+03  0.81352E+03  0.14414E+04  0.26481E+04  0.49147E+04
  0.92408E+04  0.17684E+05  0.34704E+05  0.70808E+05  0.12052E+06  0.20514E+06
  0.00000E+00  0.00000E+00  0.00000E+00  0.00000E+00  0.00000E+00  0.00000E+00
  0.00000E+00  0.00000E+00  0.00000E+00  0.00000E+00  0.00000E+00  0.00000E+00
  0.00000E+00  0.00000E+00  0.00000E+00  0.28932E-02  0.73376E-02  0.15932E-01
  0.36188E-01  0.78612E-01  0.16590E+00  0.33856E+00  0.69973E+00  0.14717E+01
  0.28639E+01  0.55343E+01  0.10649E+02  0.20209E+02  0.40281E+02  0.77067E+02
  0.15413E+03  0.27580E+03  0.49235E+03  0.88921E+03  0.15756E+04  0.28956E+04
  0.53757E+04  0.10111E+05  0.19355E+05  0.37994E+05  0.77542E+05  0.13202E+06
  0.22477E+06  0.00000E+00  0.00000E+00  0.00000E+00  0.00000E+00  0.00000E+00
  0.00000E+00  0.00000E+00  0.00000E+00  0.00000E+00  0.00000E+00  0.00000E+00
  0.00000E+00  0.00000E+00  0.00000E+00  0.00000E+00  0.31282E-02  0.80797E-02
  0.17560E-01  0.39998E-01  0.86441E-01  0.18167E+00  0.36925E+00  0.76045E+00
  0.15944E+01  0.30967E+01  0.59722E+01  0.11477E+02  0.21764E+02  0.43379E+02
  0.82998E+02  0.16607E+03  0.29733E+03  0.53108E+03  0.95964E+03  0.17008E+04
  0.31274E+04  0.58094E+04  0.10932E+05  0.20939E+05  0.41124E+05  0.83972E+05
  0.14304E+06  0.24364E+06  0.00000E+00  0.00000E+00  0.00000E+00  0.00000E+00
  0.00000E+00  0.00000E+00  0.00000E+00  0.00000E+00  0.00000E+00  0.00000E+00
  0.00000E+00  0.00000E+00  0.00000E+00  0.00000E+00  0.00000E+00  0.30483E-02
  0.83988E-02  0.18609E-01  0.43095E-01  0.93098E-01  0.19539E+00  0.39617E+00
  0.81328E+00  0.17007E+01  0.32977E+01  0.63469E+01  0.12182E+02  0.23086E+02
  0.46032E+02  0.88105E+02  0.17645E+03  0.31625E+03  0.56541E+03  0.10225E+04
  0.18130E+04  0.33369E+04  0.62042E+04  0.11686E+05  0.22400E+05  0.44029E+05
  0.89973E+05  0.15337E+06  0.26141E+06  0.00000E+00  0.00000E+00  0.00000E+00
  0.00000E+00  0.00000E+00  0.00000E+00  0.00000E+00  0.00000E+00  0.00000E+00
  0.00000E+00  0.00000E+00  0.00000E+00  0.00000E+00  0.00000E+00  0.00000E+00
  0.23562E-02  0.79225E-02  0.18648E-01  0.45050E-01  0.98083E-01  0.20656E+00
  0.41858E+00  0.85760E+00  0.17890E+01  0.34642E+01  0.66526E+01  0.12753E+02
  0.24154E+02  0.48197E+02  0.92309E+02  0.18513E+03  0.33229E+03  0.59488E+03
  0.10771E+04  0.19109E+04  0.35215E+04  0.65556E+04  0.12362E+05  0.23723E+05
  0.46680E+05  0.95487E+05  0.16293E+06  0.27796E+06  0.00000E+00  0.00000E+00
  0.00000E+00  0.00000E+00  0.00000E+00  0.00000E+00  0.00000E+00  0.00000E+00
  0.00000E+00  0.00000E+00  0.00000E+00  0.00000E+00  0.00000E+00  0.00000E+00
  0.00000E+00  0.00000E+00  0.53538E-02  0.16025E-01  0.43572E-01  0.96887E-01
  0.20518E+00  0.41461E+00  0.83817E+00  0.17192E+01  0.33277E+01  0.63758E+01
  0.12207E+02  0.23114E+02  0.46193E+02  0.88582E+02  0.17807E+03  0.32038E+03
  0.57475E+03  0.10426E+04  0.18514E+04  0.34185E+04  0.63757E+04  0.12044E+05
  0.23153E+05  0.45630E+05  0.93480E+05  0.15974E+06  0.27288E+06  0.00000E+00
  0.28687E-03  0.58108E-03  0.88513E-03  0.12027E-02  0.15387E-02  0.18985E-02
  0.22894E-02  0.27160E-02  0.31841E-02  0.36847E-02  0.41990E-02  0.46235E-02
  0.48058E-02  0.45332E-02  0.00000E+00  0.00000E+00  0.10288E-01  0.38990E-01
  0.92410E-01  0.20084E+00  0.40664E+00  0.81848E+00  0.16596E+01  0.32084E+01
  0.61254E+01  0.11702E+02  0.22133E+02  0.44283E+02  0.84996E+02  0.17122E+03
  0.30878E+03  0.55508E+03  0.10088E+04  0.17927E+04  0.33168E+04  0.61977E+04
  0.11729E+05  0.22586E+05  0.44587E+05  0.91483E+05  0.15656E+06  0.26782E+06
  0.00000E+00  0.11765E-02  0.23757E-02  0.36055E-02  0.48773E-02  0.62047E-02
  0.76044E-02  0.90944E-02  0.10694E-01  0.12417E-01  0.14239E-01  0.16111E-01
  0.17756E-01  0.18814E-01  0.18853E-01  0.14885E-01  0.00000E+00  0.00000E+00
  0.30379E-01  0.85083E-01  0.19495E+00  0.40098E+00  0.80313E+00  0.16176E+01
  0.31184E+01  0.59196E+01  0.11263E+02  0.21252E+02  0.42528E+02  0.81642E+02
  0.16474E+03  0.29771E+03  0.53616E+03  0.97600E+03  0.17356E+04  0.32172E+04
  0.60228E+04  0.11419E+05  0.22026E+05  0.43553E+05  0.89500E+05  0.15340E+06
  0.26279E+06  0.00000E+00  0.29367E-02  0.59183E-02  0.89522E-02  0.12070E-01
  0.15294E-01  0.18653E-01  0.22184E-01  0.25922E-01  0.29894E-01  0.34073E-01
  0.38397E-01  0.42439E-01  0.45731E-01  0.47805E-01  0.44758E-01  0.39072E-01
  0.28490E-01  0.00000E+00  0.49396E-01  0.15342E+00  0.34675E+00  0.72234E+00
  0.14738E+01  0.28672E+01  0.54405E+01  0.10353E+02  0.19551E+02  0.39302E+02
  0.75687E+02  0.15352E+03  0.27883E+03  0.50431E+03  0.92139E+03  0.16413E+04
  0.30538E+04  0.57374E+04  0.10914E+05  0.21119E+05  0.41882E+05  0.86304E+05
  0.14831E+06  0.25469E+06  0.00000E+00  0.66516E-02  0.13371E-01  0.20200E-01
  0.27151E-01  0.34275E-01  0.41623E-01  0.49256E-01  0.57209E-01  0.65532E-01
  0.74147E-01  0.82944E-01  0.91213E-01  0.98233E-01  0.10349E+00  0.10007E+00
  0.94285E-01  0.86112E-01  0.49695E-01  0.00000E+00  0.10302E+00  0.29342E+00
  0.65500E+00  0.13707E+01  0.26949E+01  0.50998E+01  0.96804E+01  0.18254E+02
  0.36792E+02  0.70957E+02  0.14447E+03  0.26345E+03  0.47810E+03  0.87602E+03
  0.15621E+04  0.29158E+04  0.54947E+04  0.10483E+05  0.20341E+05  0.40444E+05
  0.83542E+05  0.14391E+06  0.24768E+06  0.00000E+00  0.14350E-01  0.28820E-01
  0.43433E-01  0.58257E-01  0.73377E-01  0.88825E-01  0.10472E+00  0.12109E+00
  0.13801E+00  0.15533E+00  0.17279E+00  0.18920E+00  0.20352E+00  0.21513E+00
  0.21018E+00  0.20364E+00  0.19651E+00  0.15403E+00  0.10322E+00  0.00000E+00
  0.18391E+00  0.52781E+00  0.11961E+01  0.24348E+01  0.46348E+01  0.88206E+01
  0.16663E+02  0.33798E+02  0.65407E+02  0.13397E+03  0.24573E+03  0.44805E+03
  0.82413E+03  0.14716E+04  0.27582E+04  0.52180E+04  0.99917E+04  0.19454E+05
  0.38803E+05  0.80392E+05  0.13888E+06  0.23967E+06  0.00000E+00  0.29718E-01
  0.59598E-01  0.89769E-01  0.12022E+00  0.15108E+00  0.18247E+00  0.21451E+00
  0.24722E+00  0.28065E+00  0.31446E+00  0.34825E+00  0.37982E+00  0.40745E+00
  0.43051E+00  0.42045E+00  0.41069E+00  0.40256E+00  0.34741E+00  0.29342E+00
  0.18356E+00  0.00000E+00  0.33423E+00  0.95733E+00  0.21199E+01  0.41204E+01
  0.79221E+01  0.15052E+02  0.30839E+02  0.59972E+02  0.12376E+03  0.22855E+03
  0.41887E+03  0.77366E+03  0.13832E+04  0.26039E+04  0.49463E+04  0.95078E+04
  0.18578E+05  0.37181E+05  0.77271E+05  0.13390E+06  0.23172E+06  0.00000E+00
  0.61532E-01  0.12330E+00  0.18554E+00  0.24817E+00  0.31141E+00  0.37540E+00
  0.44024E+00  0.50610E+00  0.57270E+00  0.63943E+00  0.70527E+00  0.76643E+00
  0.81982E+00  0.86445E+00  0.84151E+00  0.81848E+00  0.80313E+00  0.72234E+00
  0.65500E+00  0.52680E+00  0.33291E+00  0.00000E+00  0.60074E+00  0.17069E+01
  0.35205E+01  0.69588E+01  0.13412E+02  0.27945E+02  0.54735E+02  0.11402E+03
  0.21222E+03  0.39113E+03  0.72546E+03  0.12981E+04  0.24547E+04  0.46826E+04
  0.90363E+04  0.17722E+05  0.35588E+05  0.74194E+05  0.12898E+06  0.22386E+06
  0.00000E+00  0.13066E+00  0.26181E+00  0.39338E+00  0.52566E+00  0.65883E+00
  0.79325E+00  0.92858E+00  0.10650E+01  0.12023E+01  0.13385E+01  0.14717E+01
  0.15944E+01  0.17007E+01  0.17890E+01  0.17192E+01  0.16596E+01  0.16176E+01
  0.14738E+01  0.13707E+01  0.11961E+01  0.95733E+00  0.60074E+00  0.00000E+00
  0.10843E+01  0.27296E+01  0.58331E+01  0.11657E+02  0.25068E+02  0.49700E+02
  0.10486E+03  0.19704E+03  0.36537E+03  0.68045E+03  0.12176E+04  0.23129E+04
  0.44303E+04  0.85823E+04  0.16892E+05  0.34036E+05  0.71184E+05  0.12416E+06
  0.21614E+06  0.00000E+00  0.25731E+00  0.51535E+00  0.77392E+00  0.10335E+01
  0.12942E+01  0.15567E+01  0.18201E+01  0.20844E+01  0.23491E+01  0.26103E+01
  0.28639E+01  0.30967E+01  0.32977E+01  0.34642E+01  0.33277E+01  0.32084E+01
  0.31184E+01  0.28672E+01  0.26949E+01  0.24348E+01  0.21199E+01  0.17069E+01
  0.10843E+01  0.00000E+00  0.14651E+01  0.42148E+01  0.93881E+01  0.21704E+02
  0.44218E+02  0.95418E+02  0.18189E+03  0.34011E+03  0.63669E+03  0.11392E+04
  0.21749E+04  0.41846E+04  0.81395E+04  0.16081E+05  0.32514E+05  0.68221E+05
  0.11940E+06  0.20851E+06  0.00000E+00  0.50220E+00  0.10055E+01  0.15094E+01
  0.20145E+01  0.25211E+01  0.30300E+01  0.35391E+01  0.40483E+01  0.45558E+01
  0.50539E+01  0.55343E+01  0.59722E+01  0.63469E+01  0.66526E+01  0.63758E+01
  0.61254E+01  0.59196E+01  0.54405E+01  0.50998E+01  0.46348E+01  0.41204E+01
  0.35205E+01  0.27296E+01  0.14651E+01  0.00000E+00  0.26617E+01  0.75957E+01
  0.19624E+02  0.41253E+02  0.90827E+02  0.17487E+03  0.32817E+03  0.61472E+03
  0.10959E+04  0.20951E+04  0.40365E+04  0.78622E+04  0.15555E+05  0.31500E+05
  0.66196E+05  0.11611E+06  0.20319E+06  0.00000E+00  0.97324E+00  0.19481E+01
  0.29234E+01  0.39003E+01  0.48789E+01  0.58601E+01  0.68399E+01  0.78173E+01
  0.87882E+01  0.97379E+01  0.10649E+02  0.11477E+02  0.12182E+02  0.12753E+02
  0.12207E+02  0.11702E+02  0.11263E+02  0.10353E+02  0.96804E+01  0.88206E+01
  0.79221E+01  0.69588E+01  0.58331E+01  0.42148E+01  0.26617E+01  0.00000E+00
  0.47964E+01  0.16816E+02  0.37887E+02  0.86542E+02  0.16921E+03  0.31909E+03
  0.59780E+03  0.10601E+04  0.20278E+04  0.39083E+04  0.76164E+04  0.15079E+05
  0.30563E+05  0.64294E+05  0.11300E+06  0.19811E+06  0.00000E+00  0.18559E+01
  0.37142E+01  0.55724E+01  0.74325E+01  0.92941E+01  0.11159E+02  0.13018E+02
  0.14869E+02  0.16704E+02  0.18495E+02  0.20209E+02  0.21764E+02  0.23086E+02
  0.24154E+02  0.23114E+02  0.22133E+02  0.21252E+02  0.19551E+02  0.18254E+02
  0.16663E+02  0.15052E+02  0.13412E+02  0.11657E+02  0.93881E+01  0.75957E+01
  0.47964E+01  0.00000E+00  0.12372E+02  0.33263E+02  0.81830E+02  0.16436E+03
  0.31257E+03  0.58594E+03  0.10321E+04  0.19738E+04  0.38021E+04  0.74058E+04
  0.14659E+05  0.29715E+05  0.62533E+05  0.11010E+06  0.19333E+06  0.00000E+00
  0.37099E+01  0.74237E+01  0.11136E+02  0.14850E+02  0.18565E+02  0.22283E+02
  0.25987E+02  0.29671E+02  0.33319E+02  0.36876E+02  0.40281E+02  0.43379E+02
  0.46032E+02  0.48197E+02  0.46193E+02  0.44283E+02  0.42528E+02  0.39302E+02
  0.36792E+02  0.33798E+02  0.30839E+02  0.27945E+02  0.25068E+02  0.21704E+02
  0.19624E+02  0.16816E+02  0.12372E+02  0.00000E+00  0.19796E+02  0.67014E+02
  0.14796E+03  0.29180E+03  0.55477E+03  0.97383E+03  0.18734E+04  0.36203E+04
  0.70661E+04  0.14009E+05  0.28438E+05  0.59932E+05  0.10584E+06  0.18639E+06
  0.00000E+00  0.71117E+01  0.14230E+02  0.21342E+02  0.28457E+02  0.35569E+02
  0.42684E+02  0.49767E+02  0.56808E+02  0.63774E+02  0.70566E+02  0.77067E+02
  0.82998E+02  0.88105E+02  0.92309E+02  0.88582E+02  0.84996E+02  0.81642E+02
  0.75687E+02  0.70957E+02  0.65407E+02  0.59972E+02  0.54735E+02  0.49700E+02
  0.44218E+02  0.41253E+02  0.37887E+02  0.33263E+02  0.19796E+02  0.00000E+00
  0.48061E+02  0.13055E+03  0.27451E+03  0.53375E+03  0.93423E+03  0.18087E+04
  0.35025E+04  0.68379E+04  0.13552E+05  0.27499E+05  0.57943E+05  0.10254E+06
  0.18091E+06  0.00000E+00  0.14235E+02  0.28480E+02  0.42713E+02  0.56945E+02
  0.71169E+02  0.85394E+02  0.99550E+02  0.11362E+03  0.12754E+03  0.14111E+03
  0.15413E+03  0.16607E+03  0.17645E+03  0.18513E+03  0.17807E+03  0.17122E+03
  0.16474E+03  0.15352E+03  0.14447E+03  0.13397E+03  0.12376E+03  0.11402E+03
  0.10486E+03  0.95418E+02  0.90827E+02  0.86542E+02  0.81830E+02  0.67014E+02
  0.48061E+02  0.00000E+00  0.83357E+02  0.22541E+03  0.47644E+03  0.84624E+03
  0.16812E+04  0.32961E+04  0.64738E+04  0.12869E+05  0.26156E+05  0.55176E+05
  0.98008E+05  0.17347E+06  0.00000E+00  0.25472E+02  0.50961E+02  0.76426E+02
  0.10189E+03  0.12733E+03  0.15277E+03  0.17808E+03  0.20324E+03  0.22813E+03
  0.25244E+03  0.27580E+03  0.29733E+03  0.31625E+03  0.33229E+03  0.32038E+03
  0.30878E+03  0.29771E+03  0.27883E+03  0.26345E+03  0.24573E+03  0.22855E+03
  0.21222E+03  0.19704E+03  0.18189E+03  0.17487E+03  0.16921E+03  0.16436E+03
  0.14796E+03  0.13055E+03  0.83357E+02  0.00000E+00  0.13837E+03  0.37807E+03
  0.71069E+03  0.15003E+04  0.30288E+04  0.60394E+04  0.12103E+05  0.24717E+05
  0.52295E+05  0.93360E+05  0.16592E+06  0.00000E+00  0.45468E+02  0.90963E+02
  0.13641E+03  0.18185E+03  0.22725E+03  0.27263E+03  0.31780E+03  0.36269E+03
  0.40712E+03  0.45054E+03  0.49235E+03  0.53108E+03  0.56541E+03  0.59488E+03
  0.57475E+03  0.55508E+03  0.53616E+03  0.50431E+03  0.47810E+03  0.44805E+03
  0.41887E+03  0.39113E+03  0.36537E+03  0.34011E+03  0.32817E+03  0.31909E+03
  0.31257E+03  0.29180E+03  0.27451E+03  0.22541E+03  0.13837E+03  0.00000E+00
  0.23211E+03  0.52688E+03  0.12787E+04  0.27335E+04  0.55979E+04  0.11366E+05
  0.23366E+05  0.49603E+05  0.89045E+05  0.15892E+06  0.00000E+00  0.82103E+02
  0.16425E+03  0.24631E+03  0.32833E+03  0.41029E+03  0.49223E+03  0.57376E+03
  0.65479E+03  0.73503E+03  0.81352E+03  0.88921E+03  0.95964E+03  0.10225E+04
  0.10771E+04  0.10426E+04  0.10088E+04  0.97600E+03  0.92139E+03  0.87602E+03
  0.82413E+03  0.77366E+03  0.72546E+03  0.68045E+03  0.63669E+03  0.61472E+03
  0.59780E+03  0.58594E+03  0.55477E+03  0.53375E+03  0.47644E+03  0.37807E+03
  0.23211E+03  0.00000E+00  0.25702E+03  0.98461E+03  0.23862E+04  0.51374E+04
  0.10664E+05  0.22138E+05  0.47185E+05  0.85218E+05  0.15272E+06  0.00000E+00
  0.14549E+03  0.29106E+03  0.43646E+03  0.58180E+03  0.72700E+03  0.87215E+03
  0.10166E+04  0.11601E+04  0.13023E+04  0.14414E+04  0.15756E+04  0.17008E+04
  0.18130E+04  0.19109E+04  0.18514E+04  0.17927E+04  0.17356E+04  0.16413E+04
  0.15621E+04  0.14716E+04  0.13832E+04  0.12981E+04  0.12176E+04  0.11392E+04
  0.10959E+04  0.10601E+04  0.10321E+04  0.97383E+03  0.93423E+03  0.84624E+03
  0.71069E+03  0.52688E+03  0.25702E+03  0.00000E+00  0.77920E+03  0.22439E+04
  0.50672E+04  0.10659E+05  0.22138E+05  0.46973E+05  0.84810E+05  0.15179E+06
  0.00000E+00  0.26723E+03  0.53460E+03  0.80164E+03  0.10686E+04  0.13352E+04
  0.16018E+04  0.18671E+04  0.21308E+04  0.23921E+04  0.26481E+04  0.28956E+04
  0.31274E+04  0.33369E+04  0.35215E+04  0.34185E+04  0.33168E+04  0.32172E+04
  0.30538E+04  0.29158E+04  0.27582E+04  0.26039E+04  0.24547E+04  0.23129E+04
  0.21749E+04  0.20951E+04  0.20278E+04  0.19738E+04  0.18734E+04  0.18087E+04
  0.16812E+04  0.15003E+04  0.12787E+04  0.98461E+03  0.77920E+03  0.00000E+00
  0.14393E+04  0.41834E+04  0.95754E+04  0.20579E+05  0.44263E+05  0.80857E+05
  0.14568E+06  0.00000E+00  0.49582E+03  0.99187E+03  0.14873E+04  0.19826E+04
  0.24773E+04  0.29719E+04  0.34642E+04  0.39537E+04  0.44389E+04  0.49147E+04
  0.53757E+04  0.58094E+04  0.62042E+04  0.65556E+04  0.63757E+04  0.61977E+04
  0.60228E+04  0.57374E+04  0.54947E+04  0.52180E+04  0.49463E+04  0.46826E+04
  0.44303E+04  0.41846E+04  0.40365E+04  0.39083E+04  0.38021E+04  0.36203E+04
  0.35025E+04  0.32961E+04  0.30288E+04  0.27335E+04  0.23862E+04  0.22439E+04
  0.14393E+04  0.00000E+00  0.26920E+04  0.79154E+04  0.18479E+05  0.41049E+05
  0.76565E+05  0.13946E+06  0.00000E+00  0.93192E+03  0.18643E+04  0.27955E+04
  0.37263E+04  0.46562E+04  0.55859E+04  0.65113E+04  0.74317E+04  0.83447E+04
  0.92408E+04  0.10111E+05  0.10932E+05  0.11686E+05  0.12362E+05  0.12044E+05
  0.11729E+05  0.11419E+05  0.10914E+05  0.10483E+05  0.99917E+04  0.95078E+04
  0.90363E+04  0.85823E+04  0.81395E+04  0.78622E+04  0.76164E+04  0.74058E+04
  0.70661E+04  0.68379E+04  0.64738E+04  0.60394E+04  0.55979E+04  0.51374E+04
  0.50672E+04  0.41834E+04  0.26920E+04  0.00000E+00  0.51090E+04  0.15291E+05
  0.36806E+05  0.71501E+05  0.13285E+06  0.00000E+00  0.17827E+04  0.35662E+04
  0.53476E+04  0.71281E+04  0.89071E+04  0.10686E+05  0.12456E+05  0.14218E+05
  0.15966E+05  0.17684E+05  0.19355E+05  0.20939E+05  0.22400E+05  0.23723E+05
  0.23153E+05  0.22586E+05  0.22026E+05  0.21119E+05  0.20341E+05  0.19454E+05
  0.18578E+05  0.17722E+05  0.16892E+05  0.16081E+05  0.15555E+05  0.15079E+05
  0.14659E+05  0.14009E+05  0.13552E+05  0.12869E+05  0.12103E+05  0.11366E+05
  0.10664E+05  0.10659E+05  0.95754E+04  0.79154E+04  0.51090E+04  0.00000E+00
  0.99190E+04  0.30498E+05  0.64805E+05  0.12522E+06  0.00000E+00  0.34971E+04
  0.69957E+04  0.10490E+05  0.13983E+05  0.17473E+05  0.20962E+05  0.24437E+05
  0.27894E+05  0.31327E+05  0.34704E+05  0.37994E+05  0.41124E+05  0.44029E+05
  0.46680E+05  0.45630E+05  0.44587E+05  0.43553E+05  0.41882E+05  0.40444E+05
  0.38803E+05  0.37181E+05  0.35588E+05  0.34036E+05  0.32514E+05  0.31500E+05
  0.30563E+05  0.29715E+05  0.28438E+05  0.27499E+05  0.26156E+05  0.24717E+05
  0.23366E+05  0.22138E+05  0.22138E+05  0.20579E+05  0.18479E+05  0.15291E+05
  0.99190E+04  0.00000E+00  0.19902E+05  0.54585E+05  0.11515E+06  0.00000E+00
  0.71324E+04  0.14268E+05  0.21395E+05  0.28519E+05  0.35637E+05  0.42755E+05
  0.49843E+05  0.56898E+05  0.63908E+05  0.70808E+05  0.77542E+05  0.83972E+05
  0.89973E+05  0.95487E+05  0.93480E+05  0.91483E+05  0.89500E+05  0.86304E+05
  0.83542E+05  0.80392E+05  0.77271E+05  0.74194E+05  0.71184E+05  0.68221E+05
  0.66196E+05  0.64294E+05  0.62533E+05  0.59932E+05  0.57943E+05  0.55176E+05
  0.52295E+05  0.49603E+05  0.47185E+05  0.46973E+05  0.44263E+05  0.41049E+05
  0.36806E+05  0.30498E+05  0.19902E+05  0.00000E+00  0.36601E+05  0.99396E+05
  0.00000E+00  0.12135E+05  0.24275E+05  0.36401E+05  0.48522E+05  0.60633E+05
  0.72745E+05  0.84808E+05  0.96820E+05  0.10876E+06  0.12052E+06  0.13202E+06
  0.14304E+06  0.15337E+06  0.16293E+06  0.15974E+06  0.15656E+06  0.15340E+06
  0.14831E+06  0.14391E+06  0.13888E+06  0.13390E+06  0.12898E+06  0.12416E+06
  0.11940E+06  0.11611E+06  0.11300E+06  0.11010E+06  0.10584E+06  0.10254E+06
  0.98008E+05  0.93360E+05  0.89045E+05  0.85218E+05  0.84810E+05  0.80857E+05
  0.76565E+05  0.71501E+05  0.64805E+05  0.54585E+05  0.36601E+05  0.00000E+00
  0.62268E+05  0.00000E+00  0.20646E+05  0.41301E+05  0.61932E+05  0.82554E+05
  0.10316E+06  0.12377E+06  0.14430E+06  0.16475E+06  0.18508E+06  0.20514E+06
  0.22477E+06  0.24364E+06  0.26141E+06  0.27796E+06  0.27288E+06  0.26782E+06
  0.26279E+06  0.25469E+06  0.24768E+06  0.23967E+06  0.23172E+06  0.22386E+06
  0.21614E+06  0.20851E+06  0.20319E+06  0.19811E+06  0.19333E+06  0.18639E+06
  0.18091E+06  0.17347E+06  0.16592E+06  0.15892E+06  0.15272E+06  0.15179E+06
  0.14568E+06  0.13946E+06  0.13285E+06  0.12522E+06  0.11515E+06  0.99396E+05
  0.62268E+05  0.00000E+00  0.00000E+00  0.00000E+00  0.00000E+00  0.00000E+00
  0.00000E+00  0.00000E+00  0.00000E+00  0.00000E+00  0.00000E+00  0.00000E+00
  0.00000E+00  0.00000E+00  0.00000E+00  0.00000E+00  0.00000E+00  0.00000E+00
  0.00000E+00  0.00000E+00  0.00000E+00  0.00000E+00  0.00000E+00  0.00000E+00
  0.00000E+00  0.00000E+00  0.00000E+00  0.00000E+00  0.00000E+00  0.00000E+00
  0.00000E+00  0.00000E+00  0.00000E+00  0.00000E+00  0.00000E+00  0.00000E+00
  0.00000E+00  0.00000E+00  0.00000E+00  0.00000E+00  0.00000E+00  0.00000E+00
  0.00000E+00  0.00000E+00  0.00000E+00  0.00000E+00  0.00000E+00  0.00000E+00
  0.00000E+00  0.00000E+00  0.00000E+00  0.00000E+00  0.00000E+00  0.00000E+00
  0.00000E+00  0.00000E+00  0.00000E+00  0.00000E+00  0.00000E+00  0.00000E+00
  0.24143E-03  0.66504E-03  0.15455E-02  0.36580E-02  0.82927E-02  0.18043E-01
  0.37680E-01  0.78648E-01  0.16868E+00  0.33218E+00  0.64834E+00  0.12564E+01
  0.23959E+01  0.47894E+01  0.91811E+01  0.18377E+02  0.32885E+02  0.58699E+02
  0.10599E+03  0.18783E+03  0.34500E+03  0.64010E+03  0.12031E+04  0.23015E+04
  0.45147E+04  0.92079E+04  0.15666E+05  0.26654E+05  0.00000E+00  0.00000E+00
  0.00000E+00  0.00000E+00  0.00000E+00  0.00000E+00  0.00000E+00  0.00000E+00
  0.00000E+00  0.00000E+00  0.00000E+00  0.00000E+00  0.00000E+00  0.00000E+00
  0.00000E+00  0.49096E-03  0.13476E-02  0.31212E-02  0.73720E-02  0.16670E-01
  0.36238E-01  0.75588E-01  0.15769E+00  0.33800E+00  0.66532E+00  0.12981E+01
  0.25150E+01  0.47950E+01  0.95840E+01  0.18370E+02  0.36767E+02  0.65791E+02
  0.11743E+03  0.21205E+03  0.37576E+03  0.69016E+03  0.12805E+04  0.24068E+04
  0.46040E+04  0.90314E+04  0.18420E+05  0.31339E+05  0.53319E+05  0.00000E+00
  0.00000E+00  0.00000E+00  0.00000E+00  0.00000E+00  0.00000E+00  0.00000E+00
  0.00000E+00  0.00000E+00  0.00000E+00  0.00000E+00  0.00000E+00  0.00000E+00
  0.00000E+00  0.00000E+00  0.75153E-03  0.20523E-02  0.47369E-02  0.11151E-01
  0.25178E-01  0.54626E-01  0.11380E+00  0.23711E+00  0.50785E+00  0.99912E+00
  0.19486E+01  0.37741E+01  0.71940E+01  0.14376E+02  0.27553E+02  0.55142E+02
  0.98665E+02  0.17611E+03  0.31798E+03  0.56346E+03  0.10349E+04  0.19201E+04
  0.36089E+04  0.69037E+04  0.13543E+05  0.27621E+05  0.46993E+05  0.79953E+05
  0.00000E+00  0.00000E+00  0.00000E+00  0.00000E+00  0.00000E+00  0.00000E+00
  0.00000E+00  0.00000E+00  0.00000E+00  0.00000E+00  0.00000E+00  0.00000E+00
  0.00000E+00  0.00000E+00  0.00000E+00  0.10269E-02  0.27888E-02  0.64078E-02
  0.15035E-01  0.33850E-01  0.73279E-01  0.15242E+00  0.31716E+00  0.67863E+00
  0.13342E+01  0.26007E+01  0.50353E+01  0.95953E+01  0.19171E+02  0.36738E+02
  0.73515E+02  0.13153E+03  0.23476E+03  0.42388E+03  0.75110E+03  0.13795E+04
  0.25595E+04  0.48106E+04  0.92024E+04  0.18052E+05  0.36818E+05  0.62641E+05
  0.10658E+06  0.00000E+00  0.00000E+00  0.00000E+00  0.00000E+00  0.00000E+00
  0.00000E+00  0.00000E+00  0.00000E+00  0.00000E+00  0.00000E+00  0.00000E+00
  0.00000E+00  0.00000E+00  0.00000E+00  0.00000E+00  0.13224E-02  0.35688E-02
  0.81518E-02  0.19050E-01  0.42725E-01  0.92249E-01  0.19156E+00  0.39809E+00
  0.85055E+00  0.16709E+01  0.32548E+01  0.62986E+01  0.11999E+02  0.23967E+02
  0.45920E+02  0.91879E+02  0.16438E+03  0.29337E+03  0.52968E+03  0.93855E+03
  0.17238E+04  0.31982E+04  0.60112E+04  0.11499E+05  0.22557E+05  0.46007E+05
  0.78277E+05  0.13318E+06  0.00000E+00  0.00000E+00  0.00000E+00  0.00000E+00
  0.00000E+00  0.00000E+00  0.00000E+00  0.00000E+00  0.00000E+00  0.00000E+00
  0.00000E+00  0.00000E+00  0.00000E+00  0.00000E+00  0.00000E+00  0.16443E-02
  0.44029E-02  0.99906E-02  0.23235E-01  0.51892E-01  0.11169E+00  0.23137E+00
  0.47987E+00  0.10241E+01  0.20097E+01  0.39117E+01  0.75654E+01  0.14406E+02
  0.28767E+02  0.55105E+02  0.11024E+03  0.19722E+03  0.35197E+03  0.63546E+03
  0.11259E+04  0.20680E+04  0.38367E+04  0.72114E+04  0.13795E+05  0.27062E+05
  0.55196E+05  0.93913E+05  0.15979E+06  0.00000E+00  0.00000E+00  0.00000E+00
  0.00000E+00  0.00000E+00  0.00000E+00  0.00000E+00  0.00000E+00  0.00000E+00
  0.00000E+00  0.00000E+00  0.00000E+00  0.00000E+00  0.00000E+00  0.00000E+00
  0.19998E-02  0.53066E-02  0.11948E-01  0.27632E-01  0.61403E-01  0.13166E+00
  0.27196E+00  0.56274E+00  0.11988E+01  0.23497E+01  0.45690E+01  0.88303E+01
  0.16806E+02  0.33549E+02  0.64249E+02  0.12852E+03  0.22990E+03  0.41028E+03
  0.74072E+03  0.13124E+04  0.24104E+04  0.44723E+04  0.84061E+04  0.16081E+05
  0.31547E+05  0.64347E+05  0.10949E+06  0.18629E+06  0.00000E+00  0.00000E+00
  0.00000E+00  0.00000E+00  0.00000E+00  0.00000E+00  0.00000E+00  0.00000E+00
  0.00000E+00  0.00000E+00  0.00000E+00  0.00000E+00  0.00000E+00  0.00000E+00
  0.00000E+00  0.23946E-02  0.62966E-02  0.14050E-01  0.32289E-01  0.71324E-01
  0.15226E+00  0.31344E+00  0.64691E+00  0.13749E+01  0.26910E+01  0.52263E+01
  0.10092E+02  0.19196E+02  0.38305E+02  0.73339E+02  0.14668E+03  0.26238E+03
  0.46822E+03  0.84533E+03  0.14977E+04  0.27509E+04  0.51042E+04  0.95943E+04
  0.18355E+05  0.36011E+05  0.73456E+05  0.12499E+06  0.21269E+06  0.00000E+00
  0.00000E+00  0.00000E+00  0.00000E+00  0.00000E+00  0.00000E+00  0.00000E+00
  0.00000E+00  0.00000E+00  0.00000E+00  0.00000E+00  0.00000E+00  0.00000E+00
  0.00000E+00  0.00000E+00  0.28331E-02  0.73816E-02  0.16311E-01  0.37236E-01
  0.81694E-01  0.17354E+00  0.35583E+00  0.73202E+00  0.15522E+01  0.30327E+01
  0.58815E+01  0.11345E+02  0.21565E+02  0.43014E+02  0.82332E+02  0.16465E+03
  0.29452E+03  0.52559E+03  0.94892E+03  0.16812E+04  0.30882E+04  0.57306E+04
  0.10773E+05  0.20612E+05  0.40443E+05  0.82504E+05  0.14041E+06  0.23894E+06
  0.00000E+00  0.00000E+00  0.00000E+00  0.00000E+00  0.00000E+00  0.00000E+00
  0.00000E+00  0.00000E+00  0.00000E+00  0.00000E+00  0.00000E+00  0.00000E+00
  0.00000E+00  0.00000E+00  0.00000E+00  0.33004E-02  0.85421E-02  0.18704E-01
  0.42442E-01  0.92441E-01  0.19531E+00  0.39871E+00  0.81729E+00  0.17281E+01
  0.33699E+01  0.65246E+01  0.12572E+02  0.23877E+02  0.47607E+02  0.91100E+02
  0.18217E+03  0.32590E+03  0.58165E+03  0.10502E+04  0.18608E+04  0.34186E+04
  0.63448E+04  0.11930E+05  0.22830E+05  0.44802E+05  0.91412E+05  0.15559E+06
  0.26483E+06  0.00000E+00  0.00000E+00  0.00000E+00  0.00000E+00  0.00000E+00
  0.00000E+00  0.00000E+00  0.00000E+00  0.00000E+00  0.00000E+00  0.00000E+00
  0.00000E+00  0.00000E+00  0.00000E+00  0.00000E+00  0.37636E-02  0.97357E-02
  0.21163E-01  0.47828E-01  0.10342E+00  0.21728E+00  0.44151E+00  0.90156E+00
  0.18999E+01  0.36973E+01  0.71447E+01  0.13748E+02  0.26090E+02  0.52003E+02
  0.99494E+02  0.19898E+03  0.35605E+03  0.63562E+03  0.11480E+04  0.20341E+04
  0.37382E+04  0.69400E+04  0.13053E+05  0.24987E+05  0.49049E+05  0.10011E+06
  0.17044E+06  0.29018E+06  0.00000E+00  0.00000E+00  0.00000E+00  0.00000E+00
  0.00000E+00  0.00000E+00  0.00000E+00  0.00000E+00  0.00000E+00  0.00000E+00
  0.00000E+00  0.00000E+00  0.00000E+00  0.00000E+00  0.00000E+00  0.40690E-02
  0.10720E-01  0.23324E-01  0.52863E-01  0.11370E+00  0.23793E+00  0.48155E+00
  0.97971E+00  0.20583E+01  0.39978E+01  0.77101E+01  0.14817E+02  0.28097E+02
  0.56002E+02  0.10715E+03  0.21439E+03  0.38385E+03  0.68562E+03  0.12389E+04
  0.21957E+04  0.40375E+04  0.74999E+04  0.14114E+05  0.27032E+05  0.53091E+05
  0.10841E+06  0.18466E+06  0.31453E+06  0.00000E+00  0.00000E+00  0.00000E+00
  0.00000E+00  0.00000E+00  0.00000E+00  0.00000E+00  0.00000E+00  0.00000E+00
  0.00000E+00  0.00000E+00  0.00000E+00  0.00000E+00  0.00000E+00  0.00000E+00
  0.39649E-02  0.11142E-01  0.24717E-01  0.56963E-01  0.12246E+00  0.25592E+00
  0.51660E+00  0.10478E+01  0.21956E+01  0.42573E+01  0.81938E+01  0.15727E+02
  0.29804E+02  0.59427E+02  0.11374E+03  0.22780E+03  0.40828E+03  0.72994E+03
  0.13201E+04  0.23406E+04  0.43079E+04  0.80096E+04  0.15086E+05  0.28918E+05
  0.56841E+05  0.11615E+06  0.19800E+06  0.33749E+06  0.00000E+00  0.00000E+00
  0.00000E+00  0.00000E+00  0.00000E+00  0.00000E+00  0.00000E+00  0.00000E+00
  0.00000E+00  0.00000E+00  0.00000E+00  0.00000E+00  0.00000E+00  0.00000E+00
  0.00000E+00  0.30646E-02  0.10511E-01  0.24769E-01  0.59546E-01  0.12902E+00
  0.27050E+00  0.54585E+00  0.11050E+01  0.23096E+01  0.44723E+01  0.85885E+01
  0.16464E+02  0.31183E+02  0.62222E+02  0.11917E+03  0.23900E+03  0.42899E+03
  0.76798E+03  0.13906E+04  0.24669E+04  0.45463E+04  0.84632E+04  0.15959E+05
  0.30627E+05  0.60264E+05  0.12327E+06  0.21034E+06  0.35885E+06  0.00000E+00
  0.00000E+00  0.00000E+00  0.00000E+00  0.00000E+00  0.00000E+00  0.00000E+00
  0.00000E+00  0.00000E+00  0.00000E+00  0.00000E+00  0.00000E+00  0.00000E+00
  0.00000E+00  0.00000E+00  0.00000E+00  0.69728E-02  0.21043E-01  0.57072E-01
  0.12635E+00  0.26703E+00  0.53744E+00  0.10800E+01  0.22194E+01  0.42960E+01
  0.82311E+01  0.15759E+02  0.29840E+02  0.59635E+02  0.11436E+03  0.22988E+03
  0.41360E+03  0.74200E+03  0.13460E+04  0.23901E+04  0.44133E+04  0.82310E+04
  0.15549E+05  0.29890E+05  0.58909E+05  0.12068E+06  0.20622E+06  0.35229E+06
  0.00000E+00  0.45781E-03  0.92734E-03  0.14121E-02  0.19200E-02  0.24557E-02
  0.30308E-02  0.36524E-02  0.43340E-02  0.50804E-02  0.58803E-02  0.67004E-02
  0.73789E-02  0.76693E-02  0.72351E-02  0.00000E+00  0.00000E+00  0.13421E-01
  0.50752E-01  0.12002E+00  0.26031E+00  0.52707E+00  0.10545E+01  0.21426E+01
  0.41421E+01  0.79079E+01  0.15107E+02  0.28574E+02  0.57169E+02  0.10973E+03
