  0.50000E-01  0.78000E-01  0.12000E+00  0.19000E+00  0.31000E+00  0.49000E+00
  0.77000E+00  0.12000E+01  0.19000E+01  0.30000E+01  0.48000E+01  0.74000E+01
  0.11000E+02  0.17000E+02  0.26000E+02  0.37000E+02  0.52000E+02  0.71000E+02
  0.94000E+02  0.12000E+03  0.16000E+03  0.21000E+03  0.26000E+03  0.33000E+03
  0.41000E+03  0.48000E+03  0.57000E+03  0.66000E+03  0.75000E+03  0.82000E+03
  0.88000E+03  0.90000E+03  0.90000E+03  0.97285E+03  0.97285E+03  0.97285E+03
  0.97285E+03  0.97285E+03  0.97285E+03  0.97285E+03  0.97285E+03  0.97285E+03
  0.97285E+03  0.30000E-01  0.40000E-01  0.60000E-01  0.80000E-01  0.11000E+00
  0.15000E+00  0.17000E+00  0.18000E+00  0.20000E+00  0.25000E+00  0.40000E+00
  0.60000E+01  0.10000E+02  0.15000E+02  0.20000E+02  0.25000E+02  0.31000E+02
  0.37000E+02  0.41000E+02  0.46000E+02  0.51000E+02  0.55000E+02  0.59000E+02
  0.62000E+02  0.64000E+02  0.67000E+02  0.68000E+02  0.69000E+02  0.70000E+02
  0.71000E+02  0.71500E+02  0.71750E+02  0.72000E+02  0.72000E+02  0.72000E+02
  0.72000E+02  0.72000E+02  0.72000E+02  0.72000E+02  0.72000E+02  0.72000E+02
  0.72000E+02  0.72000E+02  0.30000E-01  0.40000E-01  0.50000E-01  0.70000E-01
  0.90000E-01  0.12000E+00  0.50000E+00  0.80000E+00  0.16000E+01  0.18000E+01
  0.20000E+01  0.30000E+01  0.40000E+01  0.50000E+01  0.80000E+01  0.13000E+02
  0.19000E+02  0.26000E+02  0.32000E+02  0.38000E+02  0.47000E+02  0.55000E+02
  0.65000E+02  0.73000E+02  0.77000E+02  0.79000E+02  0.80000E+02  0.81000E+02
  0.81000E+02  0.82000E+02  0.82000E+02  0.82000E+02  0.82000E+02  0.82000E+02
  0.82000E+02  0.82000E+02  0.82000E+02  0.82000E+02  0.82000E+02  0.82000E+02
  0.82000E+02  0.82000E+02  0.82000E+02  0.35000E-01  0.45000E-01  0.55000E-01
  0.75000E-01  0.95000E-01  0.13000E+00  0.60000E+00  0.90000E+00  0.17000E+01
  0.20000E+01  0.25000E+01  0.38000E+01  0.50000E+01  0.70000E+01  0.90000E+01
  0.11000E+02  0.14000E+02  0.17000E+02  0.21000E+02  0.25000E+02  0.32000E+02
  0.38000E+02  0.44000E+02  0.49000E+02  0.53000E+02  0.55000E+02  0.58000E+02
  0.59000E+02  0.61000E+02  0.62000E+02  0.63000E+02  0.64000E+02  0.65000E+02
  0.65000E+02  0.65000E+02  0.65000E+02  0.65000E+02  0.65000E+02  0.65000E+02
  0.65000E+02  0.65000E+02  0.65000E+02  0.65000E+02  0.20000E-01  0.31000E-01
  0.49000E-01  0.77000E-01  0.12000E+00  0.19000E+00  0.30000E+00  0.48000E+00
  0.76000E+00  0.12000E+01  0.19000E+01  0.30000E+01  0.48000E+01  0.75000E+01
  0.11000E+02  0.16000E+02  0.21000E+02  0.26000E+02  0.34000E+02  0.41000E+02
  0.49000E+02  0.57000E+02  0.65000E+02  0.73000E+02  0.81000E+02  0.87000E+02
  0.93000E+02  0.99000E+02  0.10750E+03  0.11500E+03  0.12500E+03  0.13500E+03
  0.14500E+03  0.15500E+03  0.16153E+03  0.17312E+03  0.18554E+03  0.19886E+03
  0.21313E+03  0.22843E+03  0.24483E+03  0.26240E+03  0.28123E+03  0.36840E-01
  0.57471E-01  0.88417E-01  0.13999E+00  0.22841E+00  0.36104E+00  0.56734E+00
  0.88417E+00  0.13999E+01  0.22104E+01  0.35367E+01  0.54524E+01  0.81049E+01
  0.12526E+02  0.19157E+02  0.27262E+02  0.34627E+02  0.39776E+02  0.45690E+02
  0.52485E+02  0.60289E+02  0.69254E+02  0.10000E+03  0.15429E+03  0.18561E+03
  0.22329E+03  0.26863E+03  0.32316E+03  0.38877E+03  0.46770E+03  0.56266E+03
  0.67690E+03  0.81432E+03  0.97965E+03  0.11785E+04  0.14178E+04  0.17057E+04
  0.20520E+04  0.24686E+04  0.29697E+04  0.35727E+04  0.42980E+04  0.51706E+04
  0.53000E-01  0.84000E-01  0.13000E+00  0.21000E+00  0.33000E+00  0.52000E+00
  0.82000E+00  0.13000E+01  0.21000E+01  0.33000E+01  0.52000E+01  0.82000E+01
  0.13000E+02  0.20000E+02  0.28000E+02  0.36000E+02  0.46000E+02  0.56000E+02
  0.67000E+02  0.80000E+02  0.97000E+02  0.12000E+03  0.14000E+03  0.17000E+03
  0.20000E+03  0.24000E+03  0.29000E+03  0.35000E+03  0.42000E+03  0.51000E+03
  0.61000E+03  0.74000E+03  0.89000E+03  0.10709E+04  0.12883E+04  0.15498E+04
  0.18645E+04  0.22430E+04  0.26984E+04  0.32462E+04  0.39053E+04  0.46982E+04
  0.56520E+04
